-1.048171165528042081e+02 -7.830887027122255972e+01 -2.277562836085544973e+01 9.870733194043241454e+00 2.425242780115322816e+01 4.845326085511700853e+01 1.564716995888973372e+02 2.169120166432642236e+02 2.722968291515346664e+02 3.929812243660300055e+02 4.840868652101628982e+02 5.733051273861177606e+02 5.680768474051459407e+02 4.938693764879715218e+02 4.692501493418160408e+02 4.881268800910262939e+02 4.870640163017484952e+02 4.340300452984037065e+02 4.108039359551583516e+02 3.877179963589094882e+02 3.792183230693848941e+02 3.612540129292936513e+02 3.513402967383918849e+02 3.412478691683289185e+02 3.280769322402896933e+02 3.269656868588284055e+02 3.187548222395146809e+02 3.195991114137241880e+02 3.219287111174355118e+02 3.269830115282596239e+02 3.476787690341834036e+02 3.602440026794774326e+02 3.978115233580376184e+02 4.260289299225967738e+02 4.826185810608238853e+02 4.924488239705025308e+02 3.869023770649968696e+02 3.447440859672147440e+02 3.198778312393869783e+02 2.952790235050863998e+02 2.739740448267996271e+02 2.666945091741815759e+02 2.528157128088464276e+02 2.222317001192453176e+02 2.113775650665830881e+02 1.910223103268481282e+02 1.683210297217545985e+02 1.560928133806117444e+02 1.449341486545669397e+02 1.377390401438703691e+02 1.341082623099973148e+02 1.341966652478016613e+02 1.356288550456293933e+02 1.390505374434754913e+02 1.454204697210037693e+02 1.548638371226568040e+02 1.700095154330769844e+02 1.837858318680385707e+02 1.932468978228095295e+02 2.018605888170239382e+02 2.207477842831026180e+02 2.323506272675143407e+02 2.566701854055982608e+02 2.657020989733280203e+02 3.038825399187549579e+02 3.204783344104387197e+02 3.368009151445767770e+02 3.818208352199087017e+02 4.076882432328119421e+02 4.175445636229385400e+02 4.197135481953451972e+02 4.078220554163924589e+02 3.683190688892278786e+02 3.344263473159347768e+02 3.279914531031727734e+02 2.769921169087528483e+02 2.438823588199595349e+02 2.064097603908848271e+02 1.615210670260597681e+02 1.262171001736812741e+02 8.567929921361125878e+01 6.660858705261972545e+01 6.398481230922468121e+00 -4.810204018527743131e+01 -2.771572773636976876e+02 -5.596133128810358812e+02 -1.219766179300207114e+03 -2.987551969306226511e+03 -3.748460915498884788e+03 -3.505768016256659394e+03 -4.124278560539700266e+03 -4.252885491519648895e+03 -4.220958969432505910e+03 -4.706292204750920064e+03 -5.363730814201310750e+03 -5.452379928340275001e+03 -5.776124438227617247e+03 -6.055109816794703875e+03 -6.368349044157420394e+03 -6.555832530235143167e+03 -6.874066402271020706e+03 -7.394159368765798718e+03 -8.079688025827285855e+03 -8.463493692928670498e+03 -8.913351665863729067e+03 -9.199859023619910658e+03 -9.263791121139123788e+03 -9.488143311569800062e+03 -9.603717919650114709e+03 -9.671802218829388949e+03 -9.699173982775831973e+03 -9.709593779630104109e+03 -9.725598200772225027e+03 -9.740010517382042963e+03 -9.754924793700387454e+03
-1.167832649796525715e+02 -7.337204887988022506e+01 -2.575991136163103690e+01 -3.074479088451980591e+00 3.210239240048671405e+01 5.310108450158973170e+01 1.571078506089251334e+02 2.562060839324564654e+02 3.373788788470582176e+02 4.427902167147022396e+02 4.422147488191544653e+02 4.409910983113525731e+02 5.227671566961522558e+02 4.806344657466636363e+02 3.791632916811795440e+02 4.357936093697837237e+02 4.422516676942082654e+02 3.897220679454335368e+02 3.629067222766869349e+02 3.604667346351858441e+02 3.494739922288651428e+02 3.350998118550481308e+02 3.357166359929993860e+02 3.247047212199212822e+02 3.112081729823754017e+02 3.134999581934443427e+02 3.065881926065946459e+02 3.062340572022236529e+02 3.122012075951548127e+02 3.273310540513512024e+02 3.366714466891581878e+02 3.453718324783588400e+02 3.716366139194157086e+02 4.067007769151076673e+02 4.532208851878770588e+02 4.840362264054201660e+02 4.140125613709155346e+02 3.936268651403354966e+02 3.415397715524585465e+02 3.237886317996412799e+02 3.016074561662955489e+02 2.753014448591464998e+02 2.629095706734509577e+02 2.367403269448592482e+02 2.210897601510555717e+02 1.920371265117697703e+02 1.690323793184882391e+02 1.586862657912124348e+02 1.440416876586590433e+02 1.391789701914627528e+02 1.344004646863933488e+02 1.343671121737775138e+02 1.358462230011101326e+02 1.387519432960448000e+02 1.470687347300977308e+02 1.581805908276722050e+02 1.690786563969788290e+02 1.828793778009024322e+02 1.941461104933447359e+02 2.134919784579464590e+02 2.223507854851673642e+02 2.378798863704838311e+02 2.629962237139861259e+02 2.790542029166899169e+02 3.019851492416705128e+02 3.260761998585910533e+02 3.513423746820330393e+02 4.015533534231393560e+02 4.167838795840376633e+02 4.210392255912790915e+02 4.171401244351111472e+02 4.029196059069844864e+02 3.973405204884728619e+02 3.379204920271300807e+02 3.036428997794220095e+02 2.739172852192727987e+02 2.311332259703328589e+02 1.741655295610940186e+02 1.452187016937276951e+02 1.075994047476806088e+02 8.179525762598679250e+01 3.791676371048576755e+01 -1.011652761561908775e+01 -3.714910163355194328e+01 -3.874566280855132732e+02 -7.905919176321004898e+02 -2.239462362319841304e+03 -4.227701385251792090e+03 -4.881837122136763355e+03 -5.197462021702386664e+03 -4.980349126198853810e+03 -4.866067930162709672e+03 -5.234405362006064024e+03 -5.770910039058589973e+03 -5.909635913884393631e+03 -5.948702894765946439e+03 -6.140568527303130395e+03 -6.285446762365650102e+03 -6.692737721237052028e+03 -6.770660614135621472e+03 -7.178608273255772474e+03 -7.602536224341903107e+03 -8.297200515841905144e+03 -8.756385602221553199e+03 -8.907744775796538306e+03 -9.214386512981642227e+03 -9.454254915034629448e+03 -9.587497417753558693e+03 -9.660512897719923785e+03 -9.702943853869022860e+03 -9.722657915373951255e+03 -9.729829374869719686e+03 -9.738766752907551563e+03 -9.762147251823031183e+03 -9.775626378650578772e+03
-1.409111566603139920e+02 -8.475510053965882662e+01 -3.482866394084717854e+01 -1.747455154963829571e+01 1.178003897605639061e+01 5.506327425915154805e+01 1.011773758029331418e+02 1.668802360156690270e+02 1.801156052389164017e+02 3.507430369101769543e+02 3.707119513595119429e+02 3.446548138114782773e+02 3.951328894038908288e+02 3.920945357708340566e+02 3.617377424234751970e+02 3.912222606848354189e+02 3.885602254051764248e+02 3.661312785583893401e+02 3.271206087694795315e+02 3.100499326580270463e+02 3.070007014452181693e+02 3.104752081598689415e+02 3.108885899986353252e+02 2.981862255505081407e+02 2.964664182520816098e+02 3.027393515308286283e+02 2.998562884815137295e+02 3.008330882536225204e+02 3.076275675090838035e+02 3.183681545236872807e+02 3.379900193132581308e+02 3.524682538822316928e+02 3.747857922433651083e+02 3.839514911189628492e+02 4.573914542300894936e+02 5.262694394490944205e+02 5.013548880165948276e+02 4.301352906318866189e+02 3.943449184839361692e+02 3.685353092504874439e+02 3.339036718458772839e+02 2.823550247280112444e+02 2.685055690388488188e+02 2.464950545278749701e+02 2.223872316943249245e+02 1.946422873025952356e+02 1.761154874528830305e+02 1.583573360132858738e+02 1.444777865870331652e+02 1.407201660542362447e+02 1.361075410520982132e+02 1.363759079007063235e+02 1.377377347563747207e+02 1.403815170955125211e+02 1.503648890452215028e+02 1.626498890600230993e+02 1.688879141811929969e+02 1.924520225451672388e+02 2.022648327828030688e+02 2.140445916908100514e+02 2.264122144239327099e+02 2.506591577679702993e+02 2.677063495958333306e+02 2.862287769816969671e+02 3.181554797003400950e+02 3.225100746808859640e+02 3.889432282598518213e+02 4.018132930797907534e+02 4.175486331786526648e+02 4.185099593529205890e+02 4.012616398007222642e+02 3.991768823803554369e+02 3.732815438527556466e+02 3.168248506561174054e+02 2.826103320871341680e+02 2.583263359368715442e+02 2.148454662589446400e+02 1.597590508056293856e+02 1.328265726767832859e+02 1.049542534844787127e+02 6.883729283915533870e+01 4.153483000356511923e+01 1.914016285622002433e+00 -3.662480116009981401e+01 -3.216771913114062045e+02 -1.370839995845555222e+03 -2.536945881718842884e+03 -4.107052344805195389e+03 -5.228388099825658173e+03 -5.527746850152366278e+03 -5.630337176270417331e+03 -5.875911534558217681e+03 -6.132402956939634350e+03 -6.391667788861362169e+03 -6.431927434311362958e+03 -6.378521229145869256e+03 -6.337737867044813356e+03 -6.487918656519771503e+03 -6.797716494577544836e+03 -7.169299430299998676e+03 -7.542816325310322100e+03 -8.233643508290231694e+03 -8.553368671511831053e+03 -9.040248126796519500e+03 -9.182376048312899002e+03 -9.514767159949231427e+03 -9.634683433342805074e+03 -9.666082659785286523e+03 -9.719462210518528082e+03 -9.727613012624109615e+03 -9.743603711044852389e+03 -9.747563856906177534e+03 -9.767646507362103875e+03 -9.777590058699530346e+03 -9.791922374034800669e+03
-1.664497517626857643e+02 -1.007274276110592410e+02 -8.093995908983619358e+01 -5.063450753910019131e+01 -1.419744468063152887e+01 2.325285807257107962e+01 7.314632631266091778e+01 9.480659487761303694e+01 1.568153165333101242e+02 2.183440327872607725e+02 2.284222732508195861e+02 2.631301951219749071e+02 3.050859113225338319e+02 3.077963445397703595e+02 2.916432649274233881e+02 2.872460087817584053e+02 2.875511803372889972e+02 2.886378148241300892e+02 2.904496054214117748e+02 2.852910219332410975e+02 2.811732263494196218e+02 2.762509839934360230e+02 2.838407491784726631e+02 2.846423332282425349e+02 2.835381979736086464e+02 2.822078680843792426e+02 2.829471748031955940e+02 2.937181246418331853e+02 3.037764068456699533e+02 3.175274656961468622e+02 3.309623456697557344e+02 3.493315918906192223e+02 3.677235401029496984e+02 3.914789454842743908e+02 4.547261007317469534e+02 4.978117776471844422e+02 5.116287772739506181e+02 5.205382781495759446e+02 4.637763916158043003e+02 4.255023029758767166e+02 3.507870002507552272e+02 3.134157350009770653e+02 2.774092225042612654e+02 2.661862583051008642e+02 2.214502316321056128e+02 2.003703306810486424e+02 1.867197324985810098e+02 1.559046018958295292e+02 1.465942932976363409e+02 1.410094745552133304e+02 1.372763031315875821e+02 1.369700744878817034e+02 1.393570480292283662e+02 1.441041219489123364e+02 1.556368202653997912e+02 1.624638448868313105e+02 1.786880457448215793e+02 2.007798534039648075e+02 2.150313141527166465e+02 2.300836097812857304e+02 2.433756918539089611e+02 2.664017841544482508e+02 2.737883529349218179e+02 2.983364989041485842e+02 3.251327370832821089e+02 3.377618221874615188e+02 3.840410090634334779e+02 4.048499146915056599e+02 4.191760373261109862e+02 4.132474048193164435e+02 3.953759592588056648e+02 3.826764910358318730e+02 3.401956376017212733e+02 3.083833806554274020e+02 2.694231369988391407e+02 2.325736177353360574e+02 2.029658991224328872e+02 1.560786589844405512e+02 1.183355300824629524e+02 9.329465669350221901e+01 6.544917509937597799e+01 3.115315595705598639e+01 -1.593817060450093948e+01 -3.348729813476110451e+01 -6.716071719581804018e+02 -1.363858846787069979e+03 -2.122015675468364861e+03 -4.312647318661895042e+03 -5.021583070120503180e+03 -5.700386517265833390e+03 -5.876278943184925083e+03 -6.027954898990858965e+03 -6.201824313508997875e+03 -6.236781165637303275e+03 -6.205709099177192911e+03 -6.222224274970109946e+03 -6.255380854552212440e+03 -6.554028646056563957e+03 -6.917230845311128178e+03 -7.388717148110290509e+03 -7.745041141365755720e+03 -8.533199241552631065e+03 -8.826284891464130851e+03 -9.134745414753811929e+03 -9.464509839048201684e+03 -9.621210933528021997e+03 -9.732580041738872751e+03 -9.737505995840723699e+03 -9.750155275332175734e+03 -9.759438860043579552e+03 -9.754898375062468403e+03 -9.763344409408853608e+03 -9.785379101183387320e+03 -9.797964909105647166e+03 -9.810434716557469073e+03
-1.835767916367084069e+02 -1.563901896267612130e+02 -1.398584629308126352e+02 -7.456806230708644989e+01 -3.122859052684915326e+01 1.654727885426730438e+01 2.868176464576978546e+01 4.960696090436067607e+01 1.359033649439617193e+02 2.198394642526830580e+02 2.046715253178257967e+02 1.603290082790245492e+02 1.828190541211550340e+02 2.157539861459626138e+02 2.116947853418997454e+02 2.274469311544587811e+02 2.426930378919227280e+02 2.398844714806485854e+02 2.561887912462829036e+02 2.528335674174113592e+02 2.541298409672268406e+02 2.655198285628223402e+02 2.644357661609849401e+02 2.619157924079160011e+02 2.667250734610091172e+02 2.727223861541646670e+02 2.793945319133780458e+02 2.868560222877056276e+02 2.980436210743110337e+02 3.112029504628031304e+02 3.275474890509268562e+02 3.471176891813857992e+02 3.661529048391724359e+02 3.834080756553579477e+02 4.454341967504751665e+02 4.746721331867060485e+02 5.218383255409091817e+02 5.987491951736190003e+02 5.031111907210592449e+02 4.689264397858657389e+02 3.738703307284775974e+02 3.637590289502172709e+02 3.343438804800073285e+02 2.795767960403923098e+02 2.480581300114634189e+02 2.131866128946255401e+02 2.009807039445424266e+02 1.603798329834830838e+02 1.464011640208892402e+02 1.417281958347135173e+02 1.378729029161854953e+02 1.380977954820035052e+02 1.403486730433866683e+02 1.484033568374094045e+02 1.580100482187186515e+02 1.704963630814876865e+02 1.873799396389460696e+02 2.037586239148347147e+02 2.132780485760677607e+02 2.398517083272552384e+02 2.545963490164469647e+02 2.711705888415627328e+02 2.759673249628784788e+02 3.037351036525676022e+02 3.319927884423552769e+02 3.441603575657838405e+02 3.780393819643205688e+02 4.043656792382728327e+02 4.102159770888350749e+02 4.025770172663001745e+02 3.839015667338765638e+02 3.278604583378004236e+02 3.159195576913465402e+02 2.904044824649381553e+02 2.439145362093697713e+02 2.008517578635602661e+02 1.752431242038341566e+02 1.284611085000618402e+02 1.012727651913521072e+02 6.657286946644745740e+01 3.830349041711834701e+01 -1.883369496303263446e+01 -3.016574869159253680e+01 -3.049592955954115041e+02 -7.333508236372442752e+02 -1.241621799400223608e+03 -3.624908530898211211e+03 -5.010109398874035833e+03 -5.471113584441928651e+03 -5.799484944104094211e+03 -5.927025113297450844e+03 -6.021044825452942860e+03 -6.086728288421065372e+03 -6.093128950149549382e+03 -6.104945801089174893e+03 -6.182724532931912108e+03 -6.344612163510384562e+03 -6.764001148758939053e+03 -7.094589396226502686e+03 -7.620040465188048074e+03 -7.945925284681700759e+03 -8.324737749302683369e+03 -8.920990612119448997e+03 -9.332788478447861053e+03 -9.465416840461635729e+03 -9.582865608674155737e+03 -9.726424788396241638e+03 -9.743043621773837003e+03 -9.762850204048170781e+03 -9.776187974751148431e+03 -9.773516737584201110e+03 -9.784762223156252730e+03 -9.800546658357392516e+03 -9.812474934942052641e+03 -9.824093524227953822e+03
-2.368293536830908295e+02 -2.114052546609429157e+02 -1.691166130055900965e+02 -1.070700074431747595e+02 -5.019455307942825328e+01 3.364710881586494118e+00 6.542265030483078725e+00 2.343738020065083205e+01 6.887832316826884949e+01 1.597550721526083066e+02 1.423191497778762198e+02 1.173034965339298452e+02 1.474310164332933368e+02 1.574967391466157380e+02 1.672434190488101251e+02 1.755956982021567114e+02 1.972514215853959456e+02 2.134445271553766190e+02 2.272566614173598225e+02 2.237441018087424709e+02 2.393299711690877132e+02 2.363009115976685734e+02 2.401240127252559375e+02 2.462679456000653602e+02 2.536914430089027803e+02 2.613885207720145445e+02 2.745308778357490951e+02 2.839198845503838697e+02 2.977429755493996595e+02 3.083552491415799750e+02 3.133758022869254205e+02 3.374517572233324927e+02 3.546589743890904742e+02 3.961047599954441125e+02 4.196295920400639261e+02 4.739728211519176284e+02 5.122373401183805299e+02 5.675765488464824102e+02 5.346001236643454604e+02 4.817580574296356986e+02 4.626848455002630089e+02 4.497045873605227939e+02 3.897806732565806556e+02 3.073087171705617493e+02 2.841320377137948299e+02 2.307914232535872259e+02 2.179848385830957511e+02 1.646058309258904728e+02 1.488881586702205766e+02 1.442046946779041718e+02 1.383012454814125647e+02 1.376440078084893059e+02 1.410022171760636525e+02 1.487930990490712588e+02 1.559363914368068720e+02 1.744873800293090085e+02 1.889109700298063501e+02 2.016862599525254609e+02 2.144787362762834846e+02 2.377582585416334382e+02 2.578587332202717448e+02 2.774453087197111358e+02 2.958495300936748436e+02 3.188727118142186896e+02 3.383042652747550392e+02 3.616746466412194536e+02 3.886904029296084673e+02 3.961538970534913346e+02 3.969280311494683247e+02 3.877111714458858387e+02 3.580571895524971069e+02 3.311057802312010381e+02 2.989459729254518834e+02 2.466071216793221765e+02 2.152689392725307584e+02 1.917366396355253357e+02 1.485874905548025708e+02 1.300229470140815522e+02 9.703990566086672231e+01 6.284620414167334701e+01 6.157020482916450987e+00 -4.268700485904189179e+01 -3.018984945749386384e+02 -5.079475935369590047e+02 -8.524946232091410820e+02 -1.148843754591962352e+03 -3.338971201349083003e+03 -5.153823572243664785e+03 -5.794256589711529159e+03 -5.855476654842150310e+03 -5.917945457306608660e+03 -5.999497472639253829e+03 -6.022681275607780663e+03 -6.070571951204919969e+03 -6.131808390476931891e+03 -6.205779604276675855e+03 -6.394755292668525726e+03 -6.767819239327340256e+03 -7.133642958891697162e+03 -7.724217201274283070e+03 -8.249817573764174085e+03 -8.630862984769057221e+03 -9.147690358212035790e+03 -9.486387878609970358e+03 -9.556949049325896340e+03 -9.627555098307871958e+03 -9.717398672023246036e+03 -9.760387663542487644e+03 -9.778423020797021309e+03 -9.784005024827994930e+03 -9.788808116265632634e+03 -9.799485561064790090e+03 -9.820817447608889779e+03 -9.828797130275894233e+03 -9.840113220207627819e+03
-2.643846653468457362e+02 -2.212097697251597026e+02 -1.777665965914785033e+02 -1.200718323148895479e+02 -5.365873554714330851e+01 -2.979149350860190992e+01 -3.074595193225236756e+01 -1.127500134978811275e+01 5.524552046413679918e+00 5.511426605115872235e+01 7.022977886938359404e+01 8.108645714667845539e+01 1.168290948646595382e+02 1.216657668913150872e+02 1.312974582682081746e+02 1.438066259863892355e+02 1.693384820848376364e+02 1.777050136825663742e+02 1.799691723879252834e+02 2.058552635365803667e+02 2.113259853298097255e+02 2.171994947184997500e+02 2.228053885370407272e+02 2.281007184116882911e+02 2.397113850901211833e+02 2.492959539228195354e+02 2.606680581708135946e+02 2.782992030028914883e+02 2.803801831504587199e+02 3.012482971592766035e+02 3.113130232937531900e+02 3.345891828229184739e+02 3.570505756358084568e+02 3.794732152231148916e+02 3.973347112737494058e+02 4.417024250664017586e+02 4.741751435077301267e+02 4.699162704186584278e+02 4.747567551713281659e+02 4.579789207932818158e+02 4.479982790141685314e+02 4.536550388900959661e+02 3.923298410146090873e+02 3.504082395757999961e+02 2.887095624748506566e+02 2.329574147675325264e+02 2.026076995800945326e+02 1.596444268100971726e+02 1.538897183881771582e+02 1.457780856284059325e+02 1.420105494374913349e+02 1.380366994020007496e+02 1.421891284885702476e+02 1.482820039787407040e+02 1.649228564313926313e+02 1.779426971575669256e+02 1.951730068951015937e+02 2.064033403408083984e+02 2.191707975575286866e+02 2.397726473369909286e+02 2.581972176583366831e+02 2.780028582155413233e+02 3.004990599217609883e+02 3.188006955856545233e+02 3.544979569308237046e+02 3.767812199554283552e+02 3.845777475071759000e+02 3.915364891715220779e+02 3.885353431502234685e+02 3.634890190238692185e+02 3.130739287266000588e+02 2.978106755674889428e+02 2.951861232481129491e+02 2.330101121209952737e+02 2.177340581269348547e+02 1.605951325642144241e+02 1.416669395167399159e+02 1.080407098582391825e+02 8.069548925527081451e+01 1.619510655521619213e+01 -5.624940073614956759e+01 -2.761756531630278459e+02 -4.930546005219883909e+02 -6.446241716380970956e+02 -9.764634879008852977e+02 -1.158341169913500380e+03 -3.830019160828091117e+03 -4.846890918703753414e+03 -5.887026725702212389e+03 -5.848251911495402055e+03 -5.868931587627206682e+03 -5.900298759737057480e+03 -5.955377816684360369e+03 -6.064280814405587989e+03 -6.169341377968328743e+03 -6.279636933901168959e+03 -6.435452137305522228e+03 -6.824366331167544558e+03 -7.255259523501854346e+03 -7.838365404066445990e+03 -8.275995084965166825e+03 -8.848601518515024509e+03 -9.193500390925020838e+03 -9.482859570859835003e+03 -9.571148988608047148e+03 -9.687355114454345312e+03 -9.731113729485476142e+03 -9.788361884558011297e+03 -9.797658686479959215e+03 -9.803854134994340711e+03 -9.812153473636513809e+03 -9.820500867811791977e+03 -9.830209579548525653e+03 -9.840638749779600403e+03 -9.854150382366362464e+03
-2.798125345761905010e+02 -2.276075780695674950e+02 -1.922190070020992607e+02 -1.327475451163765285e+02 -7.690039403719741529e+01 -7.129830877988919724e+01 -6.405706232106774678e+01 -2.018614113202096405e+01 -8.840808721474046061e-01 2.623761286061417408e+01 6.062467639657653251e+01 6.684125713774189137e+01 8.356179374529560278e+01 9.728018834662736936e+01 1.042898256740033105e+02 1.083851298861121961e+02 1.259022847064972979e+02 1.551443867129262628e+02 1.596947014820041204e+02 1.758022975509012724e+02 1.839311672632951513e+02 1.945658973696351381e+02 2.061013251484886268e+02 2.097849535654541739e+02 2.221627087916147900e+02 2.367848172348332980e+02 2.540646269920497105e+02 2.712727721275811632e+02 2.744758773924397133e+02 2.946793438280156465e+02 3.075719089453875199e+02 3.248556030549079310e+02 3.522049778661668142e+02 3.736421272784654093e+02 3.869239466749378380e+02 4.112496773447469991e+02 4.357348915983316147e+02 4.114713005516897510e+02 4.005181255464386822e+02 4.074797697946606263e+02 4.026427639499058841e+02 3.666872878159307447e+02 3.644951046723734862e+02 3.384901695447657062e+02 2.644268656496694234e+02 2.316844450114523113e+02 1.963791550157967833e+02 1.610471228308762193e+02 1.557385511324334288e+02 1.474292369695519085e+02 1.417554041956280741e+02 1.394058742650924501e+02 1.436830189346253235e+02 1.496018845470988765e+02 1.581526284868299683e+02 1.759046207225844114e+02 1.857358417252733602e+02 2.111842771518669224e+02 2.195049574029065127e+02 2.496736172465601271e+02 2.591985935316935183e+02 2.801401646468046920e+02 3.035766196907783296e+02 3.232412434848525891e+02 3.549519914477941711e+02 3.720056975284231839e+02 3.799977369268594316e+02 3.787724419749985145e+02 3.695779166915390874e+02 3.446737802269889244e+02 3.028680182801232377e+02 2.805778463850132312e+02 2.524742412287380091e+02 2.233122384765252377e+02 1.855870682805432352e+02 1.484066246151296866e+02 1.239529445231050460e+02 8.595326981370209296e+01 5.334143309854562176e+01 4.626976346442064347e+00 -6.019603131200081947e+01 -4.051217185554617117e+02 -5.134473414216565743e+02 -7.232124441036686449e+02 -1.025559962809431454e+03 -1.830346732448494322e+03 -4.031934548857340815e+03 -5.806517625043965381e+03 -5.942355552216356955e+03 -5.816730573661418020e+03 -5.842414635457168515e+03 -5.881950209690165138e+03 -5.967273056789944349e+03 -6.041504657364683226e+03 -6.184507112904308087e+03 -6.319427167852064485e+03 -6.540764030926381565e+03 -6.870493291234280150e+03 -7.409946761441930903e+03 -7.800812865034437891e+03 -8.471418791980515380e+03 -9.011781883152321825e+03 -9.326519507637985953e+03 -9.473143370577008682e+03 -9.625842990626590108e+03 -9.746566524090059829e+03 -9.805154499630656574e+03 -9.813128288882808192e+03 -9.833072959072376761e+03 -9.827549753269740904e+03 -9.830615412467537681e+03 -9.837158578357955776e+03 -9.847108704581080019e+03 -9.855149666708142831e+03 -9.867670072921711835e+03
-2.859888753379289597e+02 -2.625098247794780377e+02 -1.993096044129040365e+02 -1.808479280618626319e+02 -1.332252489519532901e+02 -1.048218512367976842e+02 -7.718573764577827490e+01 -2.829199374802066913e+01 -1.514951114798156695e+01 -6.720465007385849177e+00 2.189940926541782318e+01 5.166695707057542108e+01 6.558369884513476222e+01 8.636867018296693743e+01 9.756563179392178142e+01 1.020462640216056940e+02 1.003891313223415125e+02 1.087505946263632097e+02 1.229956478438098770e+02 1.571718545288758548e+02 1.633199364149996882e+02 1.784661154730189025e+02 1.872007376529263922e+02 1.984420121411006619e+02 2.118917679283456152e+02 2.255361481201399556e+02 2.365338332122020972e+02 2.526383398232272839e+02 2.703702588063586063e+02 2.883730761590544489e+02 3.006941637237529221e+02 3.229353275859525070e+02 3.516732288193647946e+02 3.687080971179361768e+02 3.838296036533781148e+02 3.849227975494226257e+02 3.777748486890428126e+02 3.749370485438279843e+02 3.753430570419544097e+02 3.753626917228475577e+02 3.758432558074086387e+02 3.512716768747922629e+02 2.981673446369856606e+02 2.917538218395416152e+02 2.569173372001081361e+02 2.342801175589268325e+02 2.046143466765282710e+02 1.689329449442498401e+02 1.571114286453727118e+02 1.484808763033839796e+02 1.419271637894136688e+02 1.386633738679503267e+02 1.400914241042163439e+02 1.462129404354674023e+02 1.624792185917026188e+02 1.759867109846173037e+02 1.915689397626941002e+02 2.102206586780666271e+02 2.163420405719485871e+02 2.413669104846696882e+02 2.643174576182573219e+02 2.849579623304564393e+02 3.034569574332765001e+02 3.279076647272631817e+02 3.633352192588818639e+02 3.710374473679790981e+02 3.689202131441131769e+02 3.635280417996788174e+02 3.405299606091870714e+02 3.105432207274786833e+02 2.984719269917219435e+02 2.711048807687149633e+02 2.210550367236674845e+02 1.989064667901958501e+02 1.693254164311204022e+02 1.440353795342792012e+02 1.140305483879721891e+02 7.436755221768279966e+01 5.069671872740617857e+01 -3.369398039268281408e+00 -8.678494385847963599e+01 -3.152184421466812410e+02 -5.075175710472320816e+02 -7.251895520588714135e+02 -1.723589604640999369e+03 -2.805813129895925158e+03 -4.089833249262939262e+03 -5.542053674801393754e+03 -5.759135217892872788e+03 -5.762795850301353312e+03 -5.798284524637656432e+03 -5.850365934065049260e+03 -5.974227047953878355e+03 -6.082798716926126872e+03 -6.221361082575323962e+03 -6.387564364909279902e+03 -6.716837093208040642e+03 -7.052559157158161725e+03 -7.672731922720542570e+03 -8.227040841630259820e+03 -8.784184409411578599e+03 -9.241599653415460125e+03 -9.476850699880373213e+03 -9.573617359129351826e+03 -9.701447042531104671e+03 -9.810153087007905924e+03 -9.817339290938421982e+03 -9.819606454805687463e+03 -9.838236617581058454e+03 -9.846460152124192973e+03 -9.841927048293722692e+03 -9.847769878621133103e+03 -9.860545546542511147e+03 -9.867071923164123291e+03 -9.879376200342028824e+03
-3.191748829255855071e+02 -2.808397659892552838e+02 -2.585223034367797368e+02 -2.118675080874562866e+02 -1.616924127403140972e+02 -1.335203938488405981e+02 -7.574141330599728406e+01 -4.039268833076521759e+01 -2.255890785334125326e+01 -1.326949079479455307e+01 1.611955390020581413e+00 2.833126658265470255e+01 3.346878362527041872e+01 6.725468685060583596e+01 6.980895308511777841e+01 8.074163368774107141e+01 9.595768074353566135e+01 1.005856721529251132e+02 1.084321393268140952e+02 1.303487665438475460e+02 1.446244696464960384e+02 1.570791983195663022e+02 1.668344270827373066e+02 1.843791165181842757e+02 1.949312059269157089e+02 2.174659573092456526e+02 2.297888380048410966e+02 2.494213791978309587e+02 2.679858370418560867e+02 2.842375002254231617e+02 2.967844463162313673e+02 3.143001105270901689e+02 3.493659720491997973e+02 3.732256571213602570e+02 3.722630835926162263e+02 3.695653868635554318e+02 3.628603069916206891e+02 3.511016697293645734e+02 3.418722910948010849e+02 3.270986542370757206e+02 3.331370517180219508e+02 3.099623913316911512e+02 2.969305232713272176e+02 2.594017776367426791e+02 2.376726030707101813e+02 2.132043969424421732e+02 1.911441186308139208e+02 1.756729986257790017e+02 1.540029906412144953e+02 1.477707612754855688e+02 1.399425754732591543e+02 1.378692811009001389e+02 1.371961989738097145e+02 1.411399421816335007e+02 1.603079340140074578e+02 1.791509409868145610e+02 1.897088018204329956e+02 2.098402246370764317e+02 2.162959584840141929e+02 2.423885272714763346e+02 2.654022561635022726e+02 2.908741386265457436e+02 3.262265538762007395e+02 3.543651474615109009e+02 3.641049311150053995e+02 3.694275788966242544e+02 3.614813695771163680e+02 3.189066312581745706e+02 2.904900456850029968e+02 2.884259266395206964e+02 2.565585975516296457e+02 2.207832709172177488e+02 1.959204152066475899e+02 1.766517666781444120e+02 1.586871521532140434e+02 1.299454100459536505e+02 9.599796121829315609e+01 6.688176107936378401e+01 3.910214176536243258e+01 -1.380913849389834702e+01 -1.018521160525684621e+02 -2.698282846419086809e+02 -6.026725164564926445e+02 -7.641273130131780817e+02 -1.744339385610337104e+03 -3.328289820246809541e+03 -5.140460792050893360e+03 -5.439509077256131604e+03 -5.691905606514284045e+03 -5.751844350718843089e+03 -5.788209344468453310e+03 -5.832071452475519436e+03 -5.902264752243388102e+03 -6.024563695753279717e+03 -6.165996396426731735e+03 -6.407471046423109328e+03 -6.797488728328747129e+03 -7.232435681648373247e+03 -7.642525775679775506e+03 -8.526473931230197195e+03 -9.179401383989421447e+03 -9.252465788291656281e+03 -9.610561903200816232e+03 -9.694217895827026950e+03 -9.734574197458845447e+03 -9.809034730834293441e+03 -9.835768283046323631e+03 -9.838393565518948890e+03 -9.841866826230945662e+03 -9.853108553159323492e+03 -9.855393529255414251e+03 -9.864163713364012438e+03 -9.870767268220570259e+03 -9.881991950788422400e+03 -9.890474596377674970e+03
-3.613437995976962611e+02 -3.105358255909934542e+02 -2.823773630195206579e+02 -2.465697462181651929e+02 -2.057971991887924617e+02 -1.431822331838281457e+02 -1.054250155691170789e+02 -5.277072743670792221e+01 -3.800089374897446959e+01 -2.898507762139486132e+01 -1.571609935858476348e+01 9.265756508855970353e+00 1.809327750085436293e+01 2.555619079942900740e+01 4.778745614422742705e+01 5.589934410154579325e+01 6.035571381886741449e+01 7.745147516613018013e+01 9.747678126224474227e+01 1.033383409606580159e+02 1.171031797271712946e+02 1.459405938141947274e+02 1.492177911019999499e+02 1.644888964612747202e+02 1.803953991632367035e+02 1.988559665092321609e+02 2.278567897204682708e+02 2.374117257562187717e+02 2.597062192681347597e+02 2.750878926560002355e+02 3.072586903113057701e+02 3.497824865339884468e+02 3.692865902187958227e+02 3.806126392699086409e+02 3.649788536267112704e+02 3.628575350447343908e+02 3.520605748768002741e+02 3.289938565493351348e+02 3.163047453269917924e+02 3.107471661499113793e+02 2.927934679976061716e+02 2.778604581041353185e+02 2.638878120625634551e+02 2.433446553245254051e+02 2.286249974026705161e+02 2.086073492187628631e+02 1.922300915441198299e+02 1.752376319410671499e+02 1.549527808262839415e+02 1.427620873798835532e+02 1.369082662117420739e+02 1.347091522465871947e+02 1.361121342051517900e+02 1.415591915008672288e+02 1.510195309128979488e+02 1.688324303569227993e+02 1.816014772401646269e+02 2.030946284413366527e+02 2.310656350180559286e+02 2.465974557276161931e+02 2.569695001858615910e+02 3.095798413730854577e+02 3.430736272028615872e+02 3.541559962653521438e+02 3.601607655041711382e+02 3.607284288443481159e+02 3.377576549308453764e+02 2.914030604996374336e+02 2.692568364199453868e+02 2.380981993061654691e+02 2.448068773087616989e+02 1.850058539938309536e+02 1.651724901934053378e+02 1.458714058283411248e+02 1.224212704104552358e+02 1.084503201874463940e+02 8.476106264659722456e+01 6.252345040851025004e+01 3.324623024281320482e+01 -4.128253312483801807e+01 -1.346923584459940457e+02 -3.695392822515643729e+02 -7.444890504347426941e+02 -1.131295993429230975e+03 -2.675394999800247206e+03 -4.366681674999409552e+03 -5.101561404588540427e+03 -5.517633539240002392e+03 -5.678750757398987844e+03 -5.751030130510317576e+03 -5.791312960434968772e+03 -5.860196194921866663e+03 -5.922119079306109597e+03 -6.041403384625113176e+03 -6.251886968367396548e+03 -6.473711175137253122e+03 -6.963289526486330942e+03 -7.492277544864135052e+03 -7.995586790252805258e+03 -8.613645014638004795e+03 -9.108084774462800851e+03 -9.369770237088123395e+03 -9.634423712032672483e+03 -9.764647444111487857e+03 -9.819997043996047069e+03 -9.833990138677316281e+03 -9.846308956850898539e+03 -9.849079570670483008e+03 -9.852340144948027955e+03 -9.861463467802261221e+03 -9.873473282533044767e+03 -9.877445471369323059e+03 -9.881869632783553243e+03 -9.890790691619888094e+03 -9.900906542994840493e+03
-3.766999189307125562e+02 -3.488497034153293157e+02 -3.224586741234821829e+02 -2.801182039315760903e+02 -2.411300211318756226e+02 -1.776320551127741965e+02 -1.270378244477678322e+02 -1.122321307732356388e+02 -7.444465778330555850e+01 -5.115690884895304436e+01 -3.341332873577540141e+01 -1.958814828891190984e+01 -2.809878895085706763e+00 9.631233458471445630e+00 2.744971055726644948e+01 3.684693371697744624e+01 4.145019606948584112e+01 4.353778350665485419e+01 7.046271268588459691e+01 9.212236257034632558e+01 1.006267964396415948e+02 1.234992069700670498e+02 1.423441707798938296e+02 1.492964649762660656e+02 1.643075720639481005e+02 1.890826871895892793e+02 2.159416313982334827e+02 2.258880218465796474e+02 2.526265013865408946e+02 2.892998952901686494e+02 3.112091331672391448e+02 3.646005118345148048e+02 4.028245182508750872e+02 3.941420952881694575e+02 3.650325147016160372e+02 3.373545849565242065e+02 3.178664370647042006e+02 3.118487134223097996e+02 2.985739330082761285e+02 2.923009751058579582e+02 2.804063610355247533e+02 2.701900466018908560e+02 2.423813227653060096e+02 2.247116251583634607e+02 2.165655389839859879e+02 2.028178816759532310e+02 1.875377057884656722e+02 1.672147737917773043e+02 1.496836277934762620e+02 1.394847951664792447e+02 1.308734107759050005e+02 1.286840586942022924e+02 1.318417172994840314e+02 1.374154074096639135e+02 1.463159518059781874e+02 1.641574524853550940e+02 1.781650698372673389e+02 1.921105643067156166e+02 2.313432699858487638e+02 2.511553742168149199e+02 2.678078967096266183e+02 3.108147837638863393e+02 3.419014931420765606e+02 3.567060173572725716e+02 3.553601852810791684e+02 3.525443684805879911e+02 3.188363492193475963e+02 2.689342785893924201e+02 2.281130517930626525e+02 2.205155501600390835e+02 1.829509263478197738e+02 1.672606710093581057e+02 1.580921941598355431e+02 1.241039642629161079e+02 9.775498297348060817e+01 8.422494022656577783e+01 7.171759206703470113e+01 4.711150528258549031e+01 -1.042924964381501773e+01 -1.336607327361075477e+02 -2.566312652061515678e+02 -5.182704224838334994e+02 -9.059143432732015526e+02 -1.832593643063043373e+03 -3.077778235367361958e+03 -4.487355596438697830e+03 -5.058825606847955896e+03 -5.443019797802979156e+03 -5.678055180308183481e+03 -5.745830179934489934e+03 -5.791177452790752795e+03 -5.847508915183824683e+03 -5.920884372322814670e+03 -6.127272036467643375e+03 -6.267711822994597242e+03 -6.595845545292463612e+03 -7.024351615748356380e+03 -7.488693495213305141e+03 -8.168846911360653394e+03 -8.623631869776430904e+03 -9.207930565330634636e+03 -9.518420433590010362e+03 -9.625851116417250523e+03 -9.781907076816853078e+03 -9.834111522615039576e+03 -9.846678497229800996e+03 -9.857318959524338425e+03 -9.869144515422298355e+03 -9.871527909822634683e+03 -9.880720483548555421e+03 -9.885005277409993141e+03 -9.884921208572563046e+03 -9.890924579023238039e+03 -9.898342338253483831e+03 -9.910466737924794870e+03
-5.544904721365230671e+02 -4.702309492240921713e+02 -3.476744502461251045e+02 -3.236172023402446030e+02 -2.598480658571242543e+02 -2.010823173215412112e+02 -1.836236007949559621e+02 -1.442982098094428522e+02 -1.169683702334283737e+02 -1.095288667632698747e+02 -8.639985138903082884e+01 -3.080718012461111499e+01 -1.812155343925686068e+01 -1.686347004858368948e+01 8.383047656370091971e+00 1.451630699126291191e+01 2.342497112393084890e+01 3.389805595490099677e+01 4.901241502926768590e+01 7.456661755189693963e+01 8.447465105835354393e+01 9.949560750675678378e+01 1.190942850820807593e+02 1.329690667127337917e+02 1.624794429902885895e+02 1.731278866146920450e+02 2.095649871274994780e+02 2.285078841595461085e+02 2.564073034954417381e+02 3.139079565399651415e+02 3.407649895513318938e+02 3.907613327925971589e+02 4.254354213439451655e+02 3.995437558639797544e+02 3.463539413686033868e+02 3.064729934898449528e+02 3.026480856195879596e+02 2.967560463376865982e+02 2.872838604418720934e+02 2.797985882159818516e+02 2.692475089823835788e+02 2.527442730305575083e+02 2.336384246969186336e+02 2.235112697765352721e+02 2.024347867468008531e+02 1.874983885274010049e+02 1.674492855192545449e+02 1.538410416217680279e+02 1.422321110599496308e+02 1.336776844923409442e+02 1.235431568809056415e+02 1.225227854005961632e+02 1.238291565478781564e+02 1.291353573147551970e+02 1.406604235493525152e+02 1.487859374616424759e+02 1.661424311923201174e+02 1.737530998031262754e+02 2.121263749027466758e+02 2.360743169003659716e+02 2.649424978320653281e+02 2.981727008787570981e+02 3.341018927336084516e+02 3.482438375424425203e+02 3.470975409354566636e+02 2.994736489033523412e+02 2.703486724087237008e+02 2.378355034402136710e+02 2.208975884444688802e+02 1.949542478545695587e+02 1.634625459366835969e+02 1.453900051736753767e+02 1.273920649174121280e+02 1.026010388620396725e+02 8.940811580902197875e+01 7.593363768254063473e+01 5.740743751846644471e+01 3.615973187262883926e+01 -3.257923963594303274e+01 -1.370722053230746553e+02 -3.417580913661305431e+02 -7.099513010386060614e+02 -9.297004293935203805e+02 -1.356168170949412797e+03 -3.010361642069111440e+03 -4.775109223563890737e+03 -5.174773938324669871e+03 -5.567225123622232786e+03 -5.678329021300812201e+03 -5.747717343708971384e+03 -5.794486199224972552e+03 -5.859222623751215906e+03 -5.958593549208307195e+03 -6.142055223910302630e+03 -6.327495177790547132e+03 -6.650360792968635906e+03 -7.153153670978549599e+03 -7.561058141771625742e+03 -8.203527045495133279e+03 -8.850213245735887540e+03 -9.215862912238140780e+03 -9.387814002569703007e+03 -9.630144357392913662e+03 -9.773814957840790157e+03 -9.832793544594202103e+03 -9.858126926081748024e+03 -9.872675973697852896e+03 -9.879626459645705836e+03 -9.878178073029266670e+03 -9.885516591241384958e+03 -9.894796899840373953e+03 -9.895713112029126933e+03 -9.903505000037095670e+03 -9.909588236925494130e+03 -9.918836790662588101e+03
-7.892777976969908877e+02 -6.578941279731056966e+02 -4.200472880003584351e+02 -3.806490081973075235e+02 -3.368383622230693391e+02 -2.531405041734272174e+02 -2.482570775046562801e+02 -2.130479039235803214e+02 -1.946255182902442584e+02 -1.644088870536121192e+02 -1.501838364151767564e+02 -8.789170934621037645e+01 -3.492307779223158803e+01 -2.393363252456425627e+01 -7.242837073435503648e+00 -3.131071768715577353e+00 3.754483375365213149e+00 1.069130202739200541e+01 2.764020717058067689e+01 5.130190026730345920e+01 6.214642763572780382e+01 6.998194152745270458e+01 9.734192055257665288e+01 1.074131360328567553e+02 1.436659784273450668e+02 1.564327321337911201e+02 1.949472440541139804e+02 2.433907842038967146e+02 2.776419625709052639e+02 3.346435274800244315e+02 3.479717291721307788e+02 4.186716942344778545e+02 4.365743724023611776e+02 3.936014435767218629e+02 3.273874303509197148e+02 2.970970026177406567e+02 2.850690871992638336e+02 2.768855228711000791e+02 2.643190594318082844e+02 2.573409465097996645e+02 2.490583036004115343e+02 2.398347375749362129e+02 2.348785368887797347e+02 2.118356753632919265e+02 1.930482209908981019e+02 1.755992561341098508e+02 1.563352767843209961e+02 1.478276663800432971e+02 1.349495619215156808e+02 1.283996640217427796e+02 1.185751336791901593e+02 1.151890622254174303e+02 1.162665600017109995e+02 1.175887546173562157e+02 1.308568747025055643e+02 1.410131873366719049e+02 1.515956580774755764e+02 1.663253041855594461e+02 1.937683538077048695e+02 2.242196154667576025e+02 2.526526190733082444e+02 2.803590694391793363e+02 3.105087031691213610e+02 3.390901391357903094e+02 3.349412708605235593e+02 3.035930566784787743e+02 2.693160156939881062e+02 2.233439703543377846e+02 1.938294615113542250e+02 1.576207549710971421e+02 1.501300617973934948e+02 1.306587971701996196e+02 1.068568264545317135e+02 9.476613878624925746e+01 6.377779042458820413e+01 4.561580885008451958e+01 2.726062512040680019e+01 3.944699364764843619e+00 -1.357436179155446609e+02 -3.231832279477104066e+02 -4.593691116795251332e+02 -7.721887141058300585e+02 -8.408047207286210778e+02 -1.807127834232797795e+03 -3.140686152879978636e+03 -4.464987028829019437e+03 -5.547359725885973603e+03 -5.674136918635508664e+03 -5.690546003662030671e+03 -5.749076209461763938e+03 -5.793967756816658948e+03 -5.868650832356323917e+03 -6.065269140929756759e+03 -6.243410525886622963e+03 -6.438094905230048425e+03 -6.836894146802345858e+03 -7.179354540630053634e+03 -7.787916217967976081e+03 -8.441373641409447373e+03 -8.779256555700863828e+03 -9.202618708419355244e+03 -9.582528041758670952e+03 -9.686339812198268191e+03 -9.819628163961853716e+03 -9.859920019791616141e+03 -9.871010544121074417e+03 -9.883927722810509295e+03 -9.888874823381172973e+03 -9.895519926080181904e+03 -9.895013958219189590e+03 -9.903028827127965997e+03 -9.906017909965761646e+03 -9.911560690735754179e+03 -9.916452637120968575e+03 -9.926252020700161665e+03
-9.154434807192326389e+02 -7.093123935188411906e+02 -6.130521803084112662e+02 -6.239818888438993554e+02 -6.299888702931763191e+02 -4.815844795389295427e+02 -2.940958425700745238e+02 -2.682046997369905057e+02 -2.397763955558036173e+02 -2.071155940946874807e+02 -1.783797117410263979e+02 -1.654639623587314077e+02 -1.120171965931165374e+02 -5.819565145836106979e+01 -5.688417672798150448e+01 -2.832761077689730200e+01 -1.628883038403097672e+01 -6.303571302045505753e+00 4.142723156643216775e+00 2.940426611068562224e+01 4.608462857440646587e+01 4.947283511015840674e+01 6.914587661686032050e+01 9.188966854959362252e+01 1.388788052627329819e+02 1.497813693881855670e+02 1.916621055715010300e+02 2.351109245320090508e+02 2.857185887399850799e+02 3.437588846954346877e+02 3.927775764743336708e+02 4.417355332623046138e+02 4.389744657925315892e+02 3.716711706704883795e+02 3.209167207277460534e+02 3.092778890223824533e+02 2.882969753513133924e+02 2.598904358125583940e+02 2.554348974842478981e+02 2.457851118571686015e+02 2.399675550101295585e+02 2.276655919264370311e+02 2.102712540641570342e+02 1.990417056567729617e+02 1.866048820145550451e+02 1.711994633612636108e+02 1.568500465840077425e+02 1.378662242012532886e+02 1.267801456933385396e+02 1.187547355565843645e+02 1.127184560050069990e+02 1.095623629629443769e+02 1.092121552803963027e+02 1.086551366017787785e+02 1.194061882456935564e+02 1.285089046038826837e+02 1.396190488189320433e+02 1.604198797182169756e+02 1.811100092052299715e+02 2.094238108806752621e+02 2.327760351733417963e+02 2.626461031027263289e+02 2.963259111681845752e+02 3.145312524968441608e+02 2.920518938086046319e+02 2.843360287794146188e+02 2.413649152862932681e+02 2.064128531386947714e+02 1.558438134099833974e+02 1.337273474901215593e+02 1.053860327724482318e+02 9.096684986905138715e+01 7.989798848091167827e+01 6.083290766491168711e+01 1.685099272958368388e+01 -1.064572136671627511e+01 -5.954434391343100685e+01 -1.250529385415798487e+02 -1.859098438305090042e+02 -4.332219915190395909e+02 -6.070670424551781252e+02 -8.002377049453290283e+02 -1.177107625387830240e+03 -1.951027234070194254e+03 -2.808304422342655471e+03 -4.233594714726419625e+03 -5.337950276942699929e+03 -5.643301084448326037e+03 -5.662485861577203650e+03 -5.735453666835038348e+03 -5.801600480771046932e+03 -5.940111146459538759e+03 -6.086944380007838845e+03 -6.312027558795160076e+03 -6.472239272868643639e+03 -6.940268337456697736e+03 -7.394295538955493612e+03 -8.041830277024999305e+03 -8.656062347690547540e+03 -9.095616655232248377e+03 -9.385181294340603927e+03 -9.673337701668586305e+03 -9.822997144219314578e+03 -9.851600166274416551e+03 -9.875244681894604582e+03 -9.882653246084020793e+03 -9.898873548609364661e+03 -9.903124737675663710e+03 -9.902640560506622933e+03 -9.909213870803981990e+03 -9.912762879390767921e+03 -9.914633650858599140e+03 -9.921593197855745530e+03 -9.926809982706414303e+03 -9.932143707307301156e+03
-1.061932670494407375e+03 -1.174749176949243520e+03 -1.062830967479760147e+03 -1.062987750789077609e+03 -1.319258689129782397e+03 -8.021504674743760006e+02 -5.139953033407714429e+02 -3.160352717392435693e+02 -2.578494359327288521e+02 -2.548205595020843361e+02 -2.143754778386626754e+02 -2.047608074689586317e+02 -1.844578214667652958e+02 -1.541219241061292280e+02 -1.104274688747152879e+02 -6.264374959022357103e+01 -3.700498246768020749e+01 -2.063800318702461567e+01 -1.419448409978484626e+01 -1.077447552012650256e+01 5.643707849209570249e+00 3.720476926431029341e+01 5.444095802746106472e+01 6.972094169687463250e+01 1.281733358576295245e+02 1.464858305972808807e+02 1.930339476158414698e+02 2.457782234980285239e+02 3.082745653639673264e+02 3.677016811270694916e+02 3.884683603304584381e+02 4.105080613813354375e+02 3.800407462815297777e+02 3.342573950551840767e+02 2.826406859133259104e+02 2.829586678618047699e+02 2.648683634079586113e+02 2.484211725168468945e+02 2.248668541197163790e+02 2.215081207113088624e+02 2.192752211243401348e+02 2.150025288520027402e+02 2.037589202565523010e+02 1.883472232441040717e+02 1.726131313444239481e+02 1.599534872870454763e+02 1.427068214022717996e+02 1.313750961404130351e+02 1.198797707266094221e+02 1.110695306234441375e+02 1.084652684809239673e+02 1.002728421481324688e+02 9.828299768619052657e+01 1.018010867626497458e+02 1.103055350127323493e+02 1.175977873300239906e+02 1.266031555800592940e+02 1.366495337600838695e+02 1.486436263528256347e+02 1.744515348822587271e+02 1.940920321611465340e+02 2.315606442161690950e+02 2.726893803635486506e+02 2.882484500493202404e+02 2.887695358183808594e+02 2.573535763347861121e+02 2.177804176070497135e+02 1.745569045908961243e+02 1.294514047917287201e+02 1.103806682973719546e+02 9.673183701490179942e+01 5.272338422872162766e+01 4.903425176037322331e+01 3.257029901417566720e+01 -1.875095806790627817e+00 -5.739654364456161773e+01 -1.232923628859711584e+02 -1.646185041650944072e+02 -3.077237368360523533e+02 -4.535358413658734094e+02 -7.242425675158194736e+02 -9.185544499449514433e+02 -1.464438821114564462e+03 -2.585969901555548859e+03 -3.762287019911675543e+03 -4.616557541520704035e+03 -5.448008665539950925e+03 -5.592468415605627342e+03 -5.639584715672672246e+03 -5.706458990782512046e+03 -5.780169757406836652e+03 -5.875582168378482493e+03 -6.104975290372540258e+03 -6.269096899764041154e+03 -6.549286957849594728e+03 -6.979570043231298769e+03 -7.610419940820015654e+03 -8.572696520904488352e+03 -9.002827016608398480e+03 -9.482918728758550060e+03 -9.731316226906053998e+03 -9.831489923401446504e+03 -9.867665826954531440e+03 -9.877931787169594827e+03 -9.885582181501722516e+03 -9.894793603617314147e+03 -9.905380192005515710e+03 -9.912379333596207289e+03 -9.916428998783874704e+03 -9.920242750115381568e+03 -9.922315944193145697e+03 -9.925549449015916252e+03 -9.927457960102496145e+03 -9.932622276034879178e+03 -9.939023177239829238e+03
-1.587443420902685830e+03 -1.588115014332405735e+03 -1.723634933167626968e+03 -2.013716690870417779e+03 -2.081745169591477861e+03 -1.934519785823440088e+03 -1.183981300084011991e+03 -5.536618607387077873e+02 -3.446535951913152758e+02 -2.916601504370255498e+02 -2.426565971534309369e+02 -2.343039105272151232e+02 -2.152654369184541849e+02 -1.815255760704659167e+02 -1.421994816947532740e+02 -9.643507170056548716e+01 -6.647267183157744341e+01 -3.930438928507953733e+01 -2.531944381315235049e+01 -1.294753855324436920e+01 4.260991921412641936e+00 3.369212778352019910e+01 4.345350729479570617e+01 6.087712307532733291e+01 7.823658909359970437e+01 1.548423117768158477e+02 2.152768361965804331e+02 2.918232846463594683e+02 3.580409397215288436e+02 3.111046039089962960e+02 2.928737074069111372e+02 3.136616406219575879e+02 3.079564947873956839e+02 3.041810091689289948e+02 2.596437292104233734e+02 2.626479028169135859e+02 2.401762277830309813e+02 2.207424019588965223e+02 2.171385438486639146e+02 2.126920174850829994e+02 2.077739976129978174e+02 2.017766144915462121e+02 1.949262554791227444e+02 1.807388407270114783e+02 1.628834521321126374e+02 1.547657578523019595e+02 1.363389133852776069e+02 1.257322490959965791e+02 1.134071699973107030e+02 1.031879137863606246e+02 9.459528956486300899e+01 8.942083977872506750e+01 8.912971109226688782e+01 8.734323969546777278e+01 8.763817487131667860e+01 1.005753191501721489e+02 1.128189866115292119e+02 1.239236840138388231e+02 1.398215222659746075e+02 1.586563102561553649e+02 1.701232119997831376e+02 2.197688598757139857e+02 2.417171213372265015e+02 2.478979413064694484e+02 2.399317121177613785e+02 2.188776202569725911e+02 2.005718460487449022e+02 1.429492743056026995e+02 1.060010821893888249e+02 9.800658983809290703e+01 7.047607720078502780e+01 3.991759622361027482e+01 2.700198904410824241e+01 4.990342171199579013e+00 -4.366136377254621692e+01 -1.083741040274430247e+02 -1.972624672412684959e+02 -2.983952212744110852e+02 -2.773989442807095429e+02 -5.166873492790375622e+02 -7.901789357989850942e+02 -9.374229264571994236e+02 -1.596246737510376306e+03 -2.413822821953388029e+03 -4.323922003507358568e+03 -5.265133971991402177e+03 -5.530588166049331448e+03 -5.595428565110162708e+03 -5.641290090005299135e+03 -5.697919210227291842e+03 -5.772229331468229248e+03 -5.899714686795375201e+03 -5.991484375655157237e+03 -6.468742623128877312e+03 -6.896464472160230798e+03 -7.398543482511855473e+03 -8.485316427277462935e+03 -8.917365602585749002e+03 -9.244203809582191752e+03 -9.609785117183586408e+03 -9.830334632247293484e+03 -9.868850673502576683e+03 -9.885499858415543713e+03 -9.891337470851047328e+03 -9.897758192933859391e+03 -9.909330420675350979e+03 -9.918399199268264056e+03 -9.922958810237019861e+03 -9.925429554595162699e+03 -9.930641505454103026e+03 -9.932467642151044856e+03 -9.931006068898081139e+03 -9.933213581225772941e+03 -9.938380505048025952e+03 -9.944467394440644057e+03
-2.479516029703969252e+03 -2.633580472280039885e+03 -2.783829642086176136e+03 -2.858758210099032112e+03 -3.366759746325945343e+03 -3.589814874810781475e+03 -2.237874892148538038e+03 -1.249600021311104001e+03 -3.713739300481310011e+02 -3.205632911827506746e+02 -2.985431680767194393e+02 -2.687947221752597216e+02 -2.396261699421655180e+02 -2.075948116022468639e+02 -1.725090697230256467e+02 -1.618705140323139915e+02 -1.324855120237129142e+02 -9.422258247136410603e+01 -4.740123533647989973e+01 -2.483766510493221702e+01 -1.632482995104995993e+01 4.713266088746553173e+00 3.140175132611944520e+01 3.750054617332323659e+01 7.531773715977278982e+01 1.535443609596263173e+02 2.250536989165907471e+02 3.409235728126733420e+02 3.295582219800881489e+02 3.062015555023656930e+02 2.188396258598085637e+02 2.320560189441857801e+02 2.483985519870362566e+02 2.290192649618808218e+02 2.069087632021148409e+02 1.843804032623429805e+02 1.959227523672845734e+02 1.972968693854553806e+02 1.917294690290976575e+02 1.877883954817085055e+02 1.926890168063998487e+02 1.846416808982950784e+02 1.851426385527705349e+02 1.644602794071304004e+02 1.535596815951885503e+02 1.445024463586229615e+02 1.269025899763888674e+02 1.168234689701606044e+02 1.086989119650168760e+02 9.986760518934616471e+01 8.973097484256084044e+01 8.634860712442397812e+01 8.094617142052919689e+01 7.581081495067040521e+01 8.048800106905275697e+01 8.551213544251957899e+01 9.053076101529060793e+01 1.061364024802399797e+02 1.199172291301679820e+02 1.300946292948105167e+02 1.459898341962561688e+02 1.860209300137411788e+02 1.972717242588447277e+02 2.122214473567277366e+02 2.088581593710810864e+02 1.929832086493509848e+02 1.706873424580473397e+02 1.437462157808108998e+02 9.422818372107026619e+01 8.995323034318568034e+01 6.567098721344838452e+01 2.907327538509295906e+01 6.971416251726183511e+00 -4.721810857151564278e+01 -9.561196888336687039e+01 -2.547755868369818870e+02 -2.595948247780838187e+02 -4.083892227182277566e+02 -4.280204257197063953e+02 -6.745532751252732169e+02 -1.008198488081439564e+03 -1.484494385979345452e+03 -2.355925119392184115e+03 -3.211964048142488991e+03 -4.547730899786356531e+03 -5.398628819233660579e+03 -5.515659609042462762e+03 -5.585214202714900239e+03 -5.629546965193492724e+03 -5.692096913021393448e+03 -5.791620648021246780e+03 -5.903098110723653008e+03 -6.061995840745758869e+03 -6.720764232284298487e+03 -7.401589699768095670e+03 -7.881839151127930563e+03 -8.926378509717660563e+03 -9.530628921372519471e+03 -9.601487359658649439e+03 -9.780077127156844654e+03 -9.846548585084370643e+03 -9.879283732779473212e+03 -9.896859783119611166e+03 -9.904823433206820482e+03 -9.911992240344865422e+03 -9.922561665937757425e+03 -9.921802853419798339e+03 -9.935878534332628988e+03 -9.938286245477826014e+03 -9.943393840541775717e+03 -9.941461959533102345e+03 -9.937696326781257085e+03 -9.938218116164995081e+03 -9.941818102011466181e+03 -9.949030265212039012e+03
-3.902982411123991369e+03 -3.983958340196617883e+03 -3.937309405739946669e+03 -4.131358311545519427e+03 -4.077744419940273019e+03 -4.664524125681269652e+03 -4.905786482328291640e+03 -2.439530930644949876e+03 -7.139107993173964815e+02 -3.641410847850028745e+02 -3.552676581895772756e+02 -3.020549000271751652e+02 -2.665713454565445204e+02 -2.393509424683645648e+02 -2.292146621607134875e+02 -2.035540336581870235e+02 -1.599354437907902593e+02 -1.204578690276319293e+02 -6.812407692741510346e+01 -4.347317843859244846e+01 -3.483810982496405018e+01 -1.670832960255712507e+01 -7.802159655682755712e+00 1.395635680328767414e+01 5.672654460487461847e+01 1.001564740786272694e+02 2.110143751535492243e+02 3.065863896333728462e+02 2.742997110876889906e+02 2.020129438167700755e+02 1.561199786745951883e+02 1.847080110503680430e+02 1.858709573026854116e+02 1.766579573177478437e+02 1.728609711533270001e+02 1.700064092229112021e+02 1.714097336037434900e+02 1.772017969798394006e+02 1.751143281997913448e+02 1.738656356564403893e+02 1.723772485215615689e+02 1.696460449838001239e+02 1.574562769752231475e+02 1.506638922387086268e+02 1.422126212587070597e+02 1.234373339052422978e+02 1.177283674568424345e+02 1.096004498427440979e+02 9.163701356270564702e+01 8.560300150803432473e+01 8.495488782078616907e+01 7.297235928989798026e+01 6.169410391164846175e+01 6.688802090173588510e+01 7.236890174543249543e+01 7.398628125894769880e+01 7.842556787694397258e+01 9.106525673711367119e+01 9.660707369613415096e+01 1.090490705537983871e+02 1.190633023390455065e+02 1.465763500086817430e+02 1.597693689344179404e+02 1.699333606554189373e+02 1.658945470055664089e+02 1.577099072596369922e+02 1.413913092536817828e+02 9.217076520009358376e+01 7.734921090471850391e+01 6.028615882810484550e+01 4.794811206837130868e+01 2.413280044607282804e+01 -1.398294653633780804e+01 -8.035698909350693953e+01 -2.379865078477254201e+02 -3.297587622815436816e+02 -3.964208654151382802e+02 -5.669449403930269682e+02 -6.772085609551753578e+02 -9.475900013183126021e+02 -1.485617250510696749e+03 -1.970552809165919143e+03 -3.308173058202586617e+03 -4.461268580380152343e+03 -5.140669486353001957e+03 -5.401070481325918081e+03 -5.486011449024297690e+03 -5.575632382009037428e+03 -5.631837373239323824e+03 -5.701088186958252663e+03 -5.786955827495543417e+03 -5.948391712040925995e+03 -6.459006948626035410e+03 -7.183814009533690296e+03 -7.916442154728626519e+03 -9.007781918196800689e+03 -9.391358093174952955e+03 -9.712001823180509746e+03 -9.845021437233412144e+03 -9.840080952074888046e+03 -9.878084017372335438e+03 -9.892564332299365560e+03 -9.906523553491620987e+03 -9.919848030111546905e+03 -9.928354795753048165e+03 -9.935274273153461763e+03 -9.942102880270380410e+03 -9.944320552037686866e+03 -9.944659465308352083e+03 -9.948084511881274011e+03 -9.947758683234582350e+03 -9.942270129934797296e+03 -9.944772550540970769e+03 -9.948432143951109538e+03 -9.954315852419169460e+03
-4.308705705632100944e+03 -4.399876209362267218e+03 -4.362338237682885847e+03 -4.494260305132027497e+03 -4.581490848332723544e+03 -4.847757175232722147e+03 -5.127611765740656665e+03 -3.996961330149489186e+03 -1.928744838986547848e+03 -7.240319059631694927e+02 -4.148442444914063003e+02 -3.382517027153091362e+02 -2.965422843292960238e+02 -2.898487086093024914e+02 -2.594102869959452846e+02 -2.343188575281552346e+02 -1.989640001787975336e+02 -1.470252000882665300e+02 -1.487892718129375851e+02 -8.743038369666938081e+01 -5.659060217481633970e+01 -3.404672112083935076e+01 -1.126643819943363489e+01 -3.887721431354539625e+00 3.712264398044626290e+01 1.036331895882579630e+02 1.853814415418778196e+02 2.267114942504906594e+02 1.527939934374026905e+02 1.191904872887650271e+02 1.126813451525441536e+02 1.437566082493749207e+02 1.232836125732074350e+02 1.383517117394281684e+02 1.423395651288338684e+02 1.355892453521703374e+02 1.520542746659057229e+02 1.638550080753205975e+02 1.589850101460493761e+02 1.585811637084522658e+02 1.549087417120858277e+02 1.530318575322515358e+02 1.499398072519886114e+02 1.395760581865463621e+02 1.275352970732216278e+02 1.194987150101287909e+02 1.133367736207114831e+02 1.001884148385764348e+02 8.115910986732008325e+01 8.183158629954961327e+01 7.418720959975532026e+01 6.012254338254999197e+01 5.798606329953234706e+01 5.411909272857262465e+01 5.634243617526916381e+01 6.164658985545607806e+01 6.309286963818369998e+01 6.922301560320038050e+01 7.050978428567022149e+01 7.916578800767754842e+01 8.700695393492794949e+01 1.093791973979385688e+02 1.179132590412459223e+02 1.161875641563812422e+02 1.264935539426575133e+02 1.151875572132083363e+02 8.932832111998894220e+01 7.207716775969888090e+01 5.224254754504301701e+01 3.952707701458609080e+01 2.279315158127912611e+01 2.675688381300147078e+00 -3.154787273372224021e+01 -1.927171068310972828e+02 -3.312649028318497244e+02 -4.451060572288444632e+02 -8.474344062002656983e+02 -8.650389806539482151e+02 -1.306478088279116037e+03 -1.706630621322410434e+03 -1.918780372553644384e+03 -3.676572349049203240e+03 -4.441764297072171757e+03 -5.153594242870492053e+03 -5.460473728185142136e+03 -5.515549120680127999e+03 -5.472682683952724801e+03 -5.520973271007415860e+03 -5.562991204157407992e+03 -5.660224686960501458e+03 -5.920116194076144893e+03 -6.445865266546766179e+03 -6.958956505740378816e+03 -7.801923847263000425e+03 -8.623409970868979144e+03 -9.480700236960949042e+03 -9.704124145357120142e+03 -9.815767902180363308e+03 -9.857617163963202984e+03 -9.870752760203462458e+03 -9.886752589764277218e+03 -9.902134113619813434e+03 -9.922784196677428554e+03 -9.930990764588608727e+03 -9.939068472889099212e+03 -9.945181896007899923e+03 -9.953118001680944872e+03 -9.953581628635993184e+03 -9.955378157988450766e+03 -9.957718891647175042e+03 -9.952570822550249432e+03 -9.948215527725194988e+03 -9.951202875574779682e+03 -9.953788944467041802e+03 -9.960010391450801762e+03
-4.596947196186792098e+03 -4.596303449093583367e+03 -4.614919074849074605e+03 -4.615564483155195376e+03 -4.702160912175544581e+03 -4.832789551154469336e+03 -5.024563302339737675e+03 -3.993283704751091136e+03 -1.933287035413192598e+03 -7.890939441260256899e+02 -6.034506979394521977e+02 -3.861183606313359746e+02 -3.586659479453320500e+02 -3.338592825675163454e+02 -3.052312582014496911e+02 -2.696591696100529703e+02 -2.448385821837192964e+02 -2.332225504949301751e+02 -2.234154784474434621e+02 -1.606330471033657830e+02 -1.180406723146097647e+02 -7.824517414727593234e+01 -2.397432296012981823e+01 -7.385593521176804899e+00 1.296667548739014819e+01 5.551207070305034108e+01 9.776006103014812254e+01 1.057606492877780653e+02 8.023580826955749501e+01 9.125393376927458178e+01 8.752884838661358913e+01 8.522819120946869020e+01 8.798389136620862416e+01 9.252063132277183399e+01 1.019868639490109956e+02 1.021592728710124618e+02 1.078848136620427454e+02 1.345801293323236791e+02 1.277569266681913547e+02 1.382367190822091914e+02 1.429768840863484343e+02 1.439466848508767782e+02 1.383835724379903240e+02 1.325632730535435542e+02 1.232979874263325115e+02 1.162083724802466804e+02 9.929428169666913107e+01 7.897096692641098059e+01 7.554905246604752733e+01 5.608212702401680616e+01 5.416365903954758920e+01 4.712293959285761247e+01 4.235769187750276643e+01 4.246538596904789387e+01 4.408342969084594642e+01 4.841701018204602747e+01 5.234692594921892095e+01 5.586623253714157045e+01 6.147376503546443161e+01 6.041370906356041814e+01 5.834064226600527547e+01 8.224217276572935020e+01 9.167320637018828222e+01 9.041926950977236288e+01 9.173480126223786613e+01 8.544921000497463126e+01 6.992950048776998528e+01 5.624046076985932530e+01 2.784342470026142990e+01 8.917783482939292128e+00 -1.124751015166255197e+00 -4.428519274237659431e+01 -1.661457284954998670e+02 -2.761698728343891958e+02 -3.707102025200043158e+02 -9.669420466046165075e+02 -1.152897178466221931e+03 -1.340123191346544672e+03 -2.063982487185244281e+03 -3.013825769553293412e+03 -3.883401932754647078e+03 -4.607835306659978414e+03 -5.320139260137151723e+03 -5.512677927932457351e+03 -5.599941146312503406e+03 -5.577995483259746834e+03 -5.520091173302239440e+03 -5.511587607473093158e+03 -5.575004912492565381e+03 -5.830442558007750449e+03 -5.927114754785174227e+03 -6.438940594443487498e+03 -7.919380149200537744e+03 -8.803329827778132312e+03 -9.359193306262995975e+03 -9.741808875643164356e+03 -9.790906116831758482e+03 -9.844881022251513059e+03 -9.877894948696566644e+03 -9.886991544065074777e+03 -9.903990183392799736e+03 -9.928885934250143691e+03 -9.936745090395281295e+03 -9.946395368767860418e+03 -9.957444352136930320e+03 -9.963839823391394020e+03 -9.963304216027656366e+03 -9.965046074553243670e+03 -9.965917511992740401e+03 -9.963618616570414815e+03 -9.957305150730357127e+03 -9.956787913083395324e+03 -9.958274725377837967e+03 -9.959586429474136821e+03 -9.964504530330754278e+03
-4.669932112229404993e+03 -4.666329440728240115e+03 -4.657410457345296891e+03 -4.669048669363075533e+03 -4.719705165510787083e+03 -4.793516313803061166e+03 -4.907255513654582501e+03 -4.000047893989333716e+03 -2.301363661890517506e+03 -1.026049482121843312e+03 -8.433590052049897849e+02 -6.293041366793341922e+02 -4.602406595198773971e+02 -3.786268568945123434e+02 -3.438825276994188016e+02 -3.169797175030874996e+02 -3.005816274685960821e+02 -2.745390731675247480e+02 -2.495838516644767253e+02 -2.250475351499761985e+02 -1.752345299434150832e+02 -1.019704281586626280e+02 -4.173200472718263399e+01 -2.355318798392423929e+01 -4.888251199455313944e+00 2.196745396800188388e+01 3.343967648096191425e+01 4.177857486520294827e+01 6.833292362111090767e+01 5.268822145336901741e+01 5.894523181292803571e+01 7.520159449950006092e+01 7.527219064327428555e+01 7.957449378222995051e+01 8.113746204121216010e+01 8.539587347995832545e+01 9.208381540002635290e+01 1.124430174695238378e+02 1.123871283917672912e+02 1.165376290196952027e+02 1.301872735216718979e+02 1.292381935357569773e+02 1.301578720877988928e+02 1.227834991248158047e+02 1.180487484853830722e+02 9.635338464876822684e+01 8.137911338248891013e+01 7.314253847597441904e+01 5.946015361483497941e+01 4.877192857121792002e+01 3.696427549490807252e+01 3.692588239325768740e+01 3.484171449169603108e+01 2.967985911818365707e+01 2.973051100155206328e+01 3.091885711233641132e+01 3.864515344765712968e+01 4.415050421372441036e+01 3.856962063349754999e+01 4.491640391436401814e+01 4.622065028437112488e+01 5.074271689930250773e+01 7.450761331480434535e+01 6.885244848460011724e+01 5.817595917643284764e+01 4.333262465348486359e+01 3.647733422749029586e+01 2.884925054671763434e+01 -1.164715316348172269e+00 -3.958098929762375207e+01 -1.637360057921056864e+02 -2.112550174246584049e+02 -2.895380544301759187e+02 -3.779762822636151327e+02 -6.200865912910122688e+02 -1.789019397394528369e+03 -1.900830464819014196e+03 -2.665776515356991240e+03 -3.646229348719692098e+03 -4.802096882206215923e+03 -5.306134132321247307e+03 -5.382773126961800699e+03 -5.499035123780965478e+03 -5.520499375366081040e+03 -5.576915489882178008e+03 -5.569243930395369716e+03 -5.544480199604361587e+03 -5.499212194653235201e+03 -5.620917086237413059e+03 -5.824704341326673784e+03 -6.016389874853907713e+03 -6.425247947554007624e+03 -7.156123842699164925e+03 -9.127304415747763414e+03 -9.426657412748318166e+03 -9.852790030564832705e+03 -9.857103886012479052e+03 -9.867875942646673138e+03 -9.892349910517503304e+03 -9.909605013289487033e+03 -9.927307291634188005e+03 -9.947662921796201772e+03 -9.956193497719432344e+03 -9.960225507425917385e+03 -9.966301459898060784e+03 -9.978238620704778441e+03 -9.977927674446440506e+03 -9.975539918299011333e+03 -9.974607324540749687e+03 -9.971912484993343242e+03 -9.965629324433411966e+03 -9.964002156096261388e+03 -9.963481916995513529e+03 -9.964671072132661720e+03 -9.969506060235671612e+03
-4.692072388855325698e+03 -4.690851378596154973e+03 -4.678478253227470304e+03 -4.686751830040433560e+03 -4.721632746016496640e+03 -4.799846908854096000e+03 -4.847715059682611354e+03 -4.248144542075571735e+03 -3.683159227276497859e+03 -1.627524564453548237e+03 -1.300140814562681499e+03 -8.773887430415225026e+02 -6.963186666578334325e+02 -4.398252141988460835e+02 -3.702907336390027240e+02 -3.605672559726016289e+02 -3.256672457039051096e+02 -3.223993220360342207e+02 -3.097502668971867479e+02 -2.637327011495215174e+02 -2.342937356033811227e+02 -1.394558559624210261e+02 -8.493949606490524218e+01 -6.936664658328554367e+01 -2.764613559672613619e+01 -2.249854735026892982e-01 3.427671285035663651e+00 1.526558916681183931e+00 2.484561520852370720e+01 2.466993412755235582e+01 2.473382167880654947e+01 3.519964451614701773e+01 3.110910185829952823e+01 5.187541886848205053e+01 5.203258044309301766e+01 6.188923203783724603e+01 6.444633588794037848e+01 7.862514654109166656e+01 8.703984969528991655e+01 1.073338835905801716e+02 1.275756018271289349e+02 1.271415938834407910e+02 1.222209872062629756e+02 1.179850087815160151e+02 9.455346834198783768e+01 8.003846822591914645e+01 7.458911301346842038e+01 5.426218791942351771e+01 3.829202361233384977e+01 2.479474529469833755e+01 2.511100648453308182e+01 2.395653328258849868e+01 1.946370019261210871e+01 1.549962115967926657e+01 1.580910903661656519e+01 2.065182188051182877e+01 2.347148890015401790e+01 2.292875085522378242e+01 2.893918710751384538e+01 2.399763162534735628e+01 2.334755949921734342e+01 3.442593484459277420e+01 3.187347024083701896e+01 3.882346781727503782e+01 4.244097425319838379e+01 1.933431786821351395e+01 -1.002237590859466287e+00 -3.249711401387297371e+01 -9.278234135416877848e+01 -2.481018441413887672e+02 -2.608378148608400124e+02 -2.934845631943505282e+02 -4.599922841999438106e+02 -6.508812681084832548e+02 -9.910432965244348225e+02 -1.939832095163467557e+03 -3.595632405111598928e+03 -4.184710977141235162e+03 -4.930565760480579229e+03 -5.216750753604394959e+03 -5.400519915682782084e+03 -5.511417471292499613e+03 -5.537282733203433963e+03 -5.623419520607106278e+03 -5.595055062289839952e+03 -5.525340587867202885e+03 -5.339206781336495624e+03 -5.199928528166215074e+03 -5.187699717292991409e+03 -5.272153326537154499e+03 -5.634860745797630443e+03 -6.188706968563351438e+03 -6.994347047438798654e+03 -8.071265769369236295e+03 -9.515621455585904187e+03 -9.762225661070675415e+03 -9.780488393802455903e+03 -9.835018665800045710e+03 -9.874154106176138157e+03 -9.885912352737761466e+03 -9.936557609806126493e+03 -9.957548171856165936e+03 -9.967871458367904779e+03 -9.982737190786934661e+03 -9.990648575012979563e+03 -9.997969732734462013e+03 -9.997762236619846590e+03 -9.994327003906793834e+03 -9.993175362755115202e+03 -9.984221765225283889e+03 -9.980233710482747483e+03 -9.975648901620086690e+03 -9.972135194009248153e+03 -9.973136629050321062e+03 -9.976767788537743400e+03
-4.724073366462577724e+03 -4.713931405539674415e+03 -4.704445357707537369e+03 -4.700621862428608438e+03 -4.732545681367109864e+03 -4.749159553106683234e+03 -4.785716626896187336e+03 -4.874509629316048631e+03 -4.341128136597039884e+03 -2.535932956605093750e+03 -1.776017372894982373e+03 -1.264962355557951014e+03 -8.226556145912346665e+02 -6.916651317125542846e+02 -7.225371474880740834e+02 -4.909664157210202688e+02 -3.858624713615278097e+02 -3.716936872258734184e+02 -3.362008178971229313e+02 -3.066209640150150335e+02 -2.493687627726341418e+02 -1.736176206225637486e+02 -1.823653646695638031e+02 -1.473034165332034036e+02 -1.028492446814411210e+02 -8.652144189541711228e+01 -6.745996657824505860e+01 -3.310705609435598973e+01 -4.059138452577792044e+00 -1.512726566309460985e+01 -9.017279362689166078e+00 1.204234357608247180e-01 1.221904203999704919e+01 2.301401638910092373e+01 3.282940061879637028e+01 4.244180302205781885e+01 4.493573857846345021e+01 4.990024827965235943e+01 6.509975128948271106e+01 7.749291656902964576e+01 1.264666558821951270e+02 1.250924873983498316e+02 1.217446573732719344e+02 1.011489347913054928e+02 7.921690125872588339e+01 6.642507276488208845e+01 5.693383837285820448e+01 3.948410935531749288e+01 2.547735190437301611e+01 1.745974015453851891e+01 8.779884182169029216e+00 3.694299081962072684e+00 7.306821072785882443e+00 8.980169869104219771e+00 1.277617437517852572e+01 1.308872090867181726e+01 1.292856879122920866e+01 1.430861502325870305e+01 1.396147582619431837e+01 1.084861638952181373e+01 1.408824140988432205e+01 1.448322017328038136e+01 1.439215409621318642e+01 1.797409240332831892e+00 -2.285922731583276146e+01 -3.795826597823429438e+01 -5.002694702766009271e+01 -1.172799256494630953e+02 -2.021902458255753743e+02 -2.678879562221875972e+02 -2.803878394705276946e+02 -3.322856748661159827e+02 -4.746199298242520968e+02 -1.632404772910208521e+03 -3.554222109724007169e+03 -3.362881141152897271e+03 -4.202696394708103981e+03 -4.920316942149383067e+03 -5.227958860637275393e+03 -5.420988860881067012e+03 -5.481515984299207958e+03 -5.523118337341625192e+03 -5.619813191374808412e+03 -5.680218888441929266e+03 -3.948287371832356257e+03 -5.067292186111812043e+03 -4.602761792778141171e+03 -4.327193991629186712e+03 -3.788813806325021233e+03 -4.157110771908690367e+03 -4.492318065181388192e+03 -5.344958877682479397e+03 -6.597496450743329660e+03 -7.597778846779405285e+03 -8.372804627927922411e+03 -8.966505621402997349e+03 -9.485050562060905577e+03 -9.614929255288625427e+03 -9.661034151502195527e+03 -9.777718365905535393e+03 -9.899615326420989732e+03 -9.905403469418390159e+03 -9.950216305286799980e+03 -9.982304147459703017e+03 -9.981983545908513406e+03 -9.998047167896565952e+03 -1.000213389591374289e+04 -1.000894577814834884e+04 -1.000364175960112516e+04 -9.998111405009867667e+03 -9.987692560589131972e+03 -9.989222387600579168e+03 -9.984928674314212913e+03 -9.982868914558106553e+03 -9.987942790139590215e+03
-4.738326274904893580e+03 -4.738722489035307262e+03 -4.724413663405748594e+03 -4.718950967045089783e+03 -4.731373354152242428e+03 -4.747092798936415420e+03 -4.768250067787745138e+03 -4.821923445178782458e+03 -4.782664533280574688e+03 -4.080680424907382530e+03 -2.364683183556624499e+03 -1.661688690579420154e+03 -1.242662293795065352e+03 -1.065736404048149552e+03 -8.977914113035897117e+02 -6.689760608901408432e+02 -4.235823273751739748e+02 -3.925742725936160582e+02 -3.748874992148883507e+02 -3.252826024815116170e+02 -2.587547697013332595e+02 -2.255620839121604604e+02 -2.401930975115945159e+02 -2.108905234768851926e+02 -2.008695345273569615e+02 -1.515514223920453674e+02 -1.612581398211518433e+02 -1.023548051429185506e+02 -5.003823384859083490e+01 -5.136215574290861241e+01 -5.549433865226527729e+01 -3.241901010014878892e+01 -8.952235616876343727e+00 -9.908980734177307292e-01 2.337258936317136815e+01 2.313953528197838594e+01 3.368913023195189993e+01 3.909063445732769537e+01 4.310448725088586031e+01 4.635700942270460700e+01 8.877616447614271067e+01 1.294032412058353998e+02 1.221151492154426990e+02 9.203533050228840295e+01 7.514754290911874079e+01 4.677483687121578271e+01 2.858653523564349186e+01 1.976603175313120886e+01 9.144160295453652054e+00 5.460350712286342834e+00 -2.227010265918219489e-01 -5.945945105525714425e+00 -1.341680625112672276e+00 -5.641461815181507689e-01 -6.490295682226194796e-01 1.080513029959626392e+00 2.636221292304185226e+00 1.001601780313188250e+01 4.936026304187135061e+00 2.648855295119482811e+00 3.806597784342839574e+00 -6.386838869571535682e+00 -1.133377391450464344e+01 -6.741796457661264697e+01 -7.660989502874630830e+01 -1.127288756219970196e+02 -1.482673193570592503e+02 -2.248864910680032096e+02 -2.557199570068773937e+02 -2.768231874949048006e+02 -4.490155812837026019e+02 -7.287190096018740633e+02 -9.751261301435584983e+02 -2.832188043806923815e+03 -3.686043420334314305e+03 -4.686175292725366489e+03 -4.747825484120906367e+03 -4.999016229070032750e+03 -5.349025206311716829e+03 -5.278023991640624445e+03 -5.081683277487877604e+03 -4.560351093807677898e+03 -4.261310119776854663e+03 -4.399927972536388552e+03 -1.466357506204133870e+03 -1.431175216577969650e+03 -1.515426962835459562e+03 -9.546329593493804850e+02 -2.068128553046412435e+03 -2.847041130185000384e+03 -4.102319560693599669e+03 -4.709459973823443761e+03 -5.705867522976896907e+03 -6.183466859994320657e+03 -7.436536231728172424e+03 -7.478117382665652258e+03 -7.997859879907219693e+03 -8.567619365183627451e+03 -8.751580675150647949e+03 -9.342057743277235204e+03 -9.737205557309647702e+03 -9.683236257312310045e+03 -9.755086326385584471e+03 -9.812802787531401918e+03 -9.927691322244978437e+03 -9.895462368823782526e+03 -9.978623072876358492e+03 -9.992618601225089151e+03 -9.998277823496880956e+03 -9.994295105532932212e+03 -9.995063319491086077e+03 -9.993534510013327235e+03 -9.993346705577952889e+03 -9.997929175346787815e+03 -1.000181879021323402e+04
-4.762304410323081356e+03 -4.761758197613435186e+03 -4.756525265518604101e+03 -4.735708463176427358e+03 -4.739837993044813629e+03 -4.751337480303428492e+03 -4.765763885278567614e+03 -4.771288430174387031e+03 -4.822454472772735244e+03 -4.376563376938360307e+03 -3.350425377399406443e+03 -2.747095124446539103e+03 -1.484315851831364398e+03 -1.205273506872615144e+03 -9.970417884035050520e+02 -8.241995071094506784e+02 -5.606640794175608562e+02 -4.706051219290022232e+02 -4.028210831842091579e+02 -3.616976753733752616e+02 -3.257589303385368567e+02 -2.916979330863878204e+02 -2.889455923814321636e+02 -2.664805055549269923e+02 -2.657650372040947104e+02 -2.388337099820031995e+02 -2.056256174020995502e+02 -1.593511545122243263e+02 -1.174938886225522054e+02 -1.413742531737578076e+02 -1.417302648441542203e+02 -1.107702264605561595e+02 -2.308318677033652122e+01 -3.130996252762125920e+01 -3.581221835123972852e+01 -1.345264690059283019e+01 7.729436723475057391e+00 1.903046251081008222e+01 2.964714781888800132e+01 3.287625798926212894e+01 4.300302822960795623e+01 9.052575338557865336e+01 1.194788225835694959e+02 7.443567560262277993e+01 5.080618174948792642e+01 3.271444388345011589e+01 2.694007497963162834e+01 1.138775117654214064e+01 -2.381132220187125448e+00 -1.263871277945784222e+01 -1.830578326395413313e+01 -1.973638154018098234e+01 -1.906666091808829933e+01 -1.643762278780778274e+01 -1.738680190054920160e+01 -2.248021669998383132e+01 -2.246169141815451908e+01 -8.296998550079781154e+00 -1.685092513430511119e+01 -1.682745632121603663e+01 -1.803960575886349105e+01 -4.548179783002593268e+01 -1.008914262881204280e+02 -1.399202439291328517e+02 -1.505294695757144439e+02 -1.608196392734485300e+02 -1.962473354732802022e+02 -2.547004700033363065e+02 -2.674983485391891804e+02 -8.169591289987791924e+02 -1.173281551159537912e+03 -1.961100166847856144e+03 -2.513651290874088772e+03 -3.546273196388725410e+03 -4.439261142434189424e+03 -5.071429330016390850e+03 -5.161525518395281324e+03 -5.249740751626781275e+03 -5.067558310668434387e+03 -4.474715024327467290e+03 -3.499134730788823163e+03 -2.626449439565034936e+03 -1.823662055368831716e+03 -3.484809531766920827e+02 -1.071785181937034253e+02 -1.339755943979797621e+02 -1.644209021268217663e+00 -2.904367750885208466e+02 -2.495944886968876517e+02 -1.862081771638425835e+03 -2.973277945901782459e+03 -3.917179454994635307e+03 -4.390590255474870901e+03 -4.576896214566620984e+03 -5.246435346362556629e+03 -5.515252424959320706e+03 -5.810741374211394941e+03 -6.846060624576267401e+03 -7.487938601272829146e+03 -7.636433166153277853e+03 -7.917711287469652234e+03 -8.431508984883972516e+03 -9.333195707953022065e+03 -9.195836787623720738e+03 -9.070511557838010049e+03 -9.480668776292495750e+03 -9.716550935434474013e+03 -9.873477974051087585e+03 -9.901281634511866287e+03 -9.921429184498214454e+03 -9.900146713033409469e+03 -9.971026136930149733e+03 -9.986487642376780059e+03 -9.997219795858543876e+03 -1.000394050603462529e+04
-4.784635074314265694e+03 -4.776922574804164469e+03 -4.775841121608263165e+03 -4.771307893718887499e+03 -4.757197076880618624e+03 -4.757465145483445667e+03 -4.767399868065683222e+03 -4.778626446067550205e+03 -4.788559515004199966e+03 -4.676938410745033252e+03 -4.231964584652268968e+03 -3.415095412702802605e+03 -2.475466339007257375e+03 -1.444543763179307007e+03 -1.284572608493549978e+03 -9.746679085153930373e+02 -7.813107786067922689e+02 -7.117660113276076572e+02 -4.625582602245417547e+02 -3.908087101447889040e+02 -3.692103647754373128e+02 -3.607958685829495380e+02 -3.426633129207570505e+02 -3.208452242657500619e+02 -3.067404391072050771e+02 -2.795737213811504489e+02 -2.572065507615920978e+02 -2.415227430032533960e+02 -1.859225904277791130e+02 -1.907271160978324929e+02 -1.854201549841133954e+02 -1.487930420861220284e+02 -1.246200327416400455e+02 -7.589484196456983511e+01 -6.264508508979007928e+01 -4.408070900053094476e+01 -6.643234181096360658e+00 -3.537288566159483061e+00 1.444364255067007274e+00 1.244928521252528064e+01 1.204986713582746027e+01 4.144234416668757603e+01 6.065776476532213479e+01 6.433555032322854572e+01 4.791379264751175526e+01 1.800976702221295156e+01 9.819400616412995220e+00 -6.089140805189368955e+00 -2.629786096382219895e+01 -4.188126262168413660e+01 -4.893659292765880764e+01 -4.242415788668099452e+01 -3.084653358249462229e+01 -4.689969387672422840e+01 -5.939233863194385776e+01 -6.304910885761688633e+01 -4.816295937090659862e+01 -5.788583806591358893e+01 -8.045313938702879852e+01 -7.322168171867465958e+01 -6.567076463440803025e+01 -9.349297474738192193e+01 -1.311518148742094922e+02 -1.547668510708149370e+02 -1.716679947364398231e+02 -1.973324521482368539e+02 -2.456560384584901726e+02 -2.927834933696770463e+02 -4.441840601529708010e+02 -8.756421084877607655e+02 -2.066528225799154370e+03 -2.941591391072487113e+03 -3.846189592933995300e+03 -4.265829760540386815e+03 -4.834334010307822609e+03 -4.981447780222257279e+03 -4.809781278938978176e+03 -4.802095249118772699e+03 -3.343961406326017823e+03 -1.893558290852615528e+03 -4.415761856661226830e+02 -8.515143942129689947e+01 -2.836847968191982616e+01 4.515856979917294289e+00 9.458801825753221593e+00 1.258546083976734842e+01 1.084579558224920959e+01 -6.141957685187197313e+00 -1.210331351572975080e+02 -1.173680214962587797e+03 -2.837581818989237490e+03 -3.366277765592643846e+03 -3.710347804279220327e+03 -3.941458124832964586e+03 -4.367266614045870483e+03 -4.580570900913639889e+03 -4.965305235410835849e+03 -5.020788024684503398e+03 -5.467355066722771880e+03 -5.725110527808924417e+03 -6.550034280280601706e+03 -7.018037678988950574e+03 -6.285066406664237547e+03 -7.142110269580954082e+03 -8.128621435309611115e+03 -8.456960655094890171e+03 -8.687491972645986607e+03 -8.978495755766896764e+03 -9.306119595326781564e+03 -9.481831183904649151e+03 -9.580954973818972576e+03 -9.777632659793365747e+03 -9.872912507214005018e+03 -9.932816654151567491e+03 -9.948805525596662847e+03
-4.812176233697932730e+03 -4.807325577377324407e+03 -4.789580616583653864e+03 -4.787017868144656859e+03 -4.780041527233947818e+03 -4.776224925744741995e+03 -4.780451203485288715e+03 -4.784543696303547222e+03 -4.787474101627181881e+03 -4.811586753812646748e+03 -4.806621069990002070e+03 -4.079087427637546170e+03 -3.331608635494582813e+03 -2.096440692716189005e+03 -1.377735191646320118e+03 -1.159549263026355675e+03 -1.035532935371949179e+03 -1.016205307712360536e+03 -6.561115435695377300e+02 -5.141120509532034930e+02 -4.544876053263388940e+02 -3.952249437875953504e+02 -4.008558314937282034e+02 -3.821649753794562230e+02 -3.331425273845221113e+02 -2.919093053647987972e+02 -2.902664703456985080e+02 -2.830970535103105021e+02 -2.403024878616903948e+02 -2.317389622443384383e+02 -2.219523916453782419e+02 -2.289399131157414899e+02 -2.036243312242230843e+02 -1.768587478668497113e+02 -1.619814320879849561e+02 -8.824525846007136920e+01 -4.979367116967798523e+01 -4.578937871100173851e+01 -2.424053950932514923e+01 9.764515718502868591e-01 6.363713407135927369e+00 1.465235473824743195e+01 1.458260739177237575e+01 2.389807916909153107e+01 3.783569026958483050e+01 8.903778850832969383e+00 -4.785807483533953133e-01 -1.777367113728375259e+01 -5.523964349557017073e+01 -8.048792332844554664e+01 -9.795034473339707404e+01 -8.746693069605093740e+01 -8.149849584165187366e+01 -9.666491769509893572e+01 -1.036732375953875760e+02 -9.438074529784111633e+01 -8.736242522116778275e+01 -8.846495409218442774e+01 -1.116678937031057899e+02 -1.289961863308442389e+02 -1.271085796873285290e+02 -1.223681424790832040e+02 -1.576064851347167632e+02 -1.665080536839128058e+02 -2.062499252157712135e+02 -2.583409351387014681e+02 -3.021653387950253205e+02 -3.896833554477017287e+02 -5.482331619387101682e+02 -1.402433540437459897e+03 -2.231142497579672181e+03 -3.098818773701590089e+03 -3.093563406997462607e+03 -3.229521747456568391e+03 -2.888063459277104357e+03 -3.375237963226069496e+03 -2.854108886714358050e+03 -1.442138171063201753e+03 -2.824614799661885627e+02 -2.174962173565215551e+02 -2.177343397565268646e+01 -5.508390461428486873e+00 1.912025398238694773e-01 1.077349757959098042e+01 1.135921801902127370e+01 1.140457478969645244e+01 9.318723319883371659e+00 -7.494483274440904097e+01 -3.088227253427343726e+02 -1.412677413155543945e+03 -2.681046969669308965e+03 -3.250463543419686175e+03 -3.584583961893687501e+03 -3.952838849086396294e+03 -4.123864174677424671e+03 -4.256634028506127834e+03 -4.390021289180199346e+03 -4.638303335275441896e+03 -4.711399534168911487e+03 -4.633134031171102833e+03 -4.800812170293340387e+03 -5.190239815779148557e+03 -5.532833158869927502e+03 -5.900572356780648079e+03 -5.819903220987429449e+03 -6.074900811928701842e+03 -7.336259764185205313e+03 -7.518682641150249765e+03 -7.661131492850779068e+03 -8.224491276971073603e+03 -8.564446404438125683e+03 -9.071582432055347454e+03 -9.137194659809787481e+03 -9.369744487604633832e+03 -9.650026273293109625e+03
-4.836936200613257824e+03 -4.830775430692124246e+03 -4.821837032560166335e+03 -4.811241434246971949e+03 -4.811002796713326461e+03 -4.796266236076734458e+03 -4.794274863070107131e+03 -4.793191467921616095e+03 -4.795259882027065032e+03 -4.809112196462007887e+03 -4.773311843620108448e+03 -4.555227176243417489e+03 -3.185552264285522597e+03 -2.728094346407614466e+03 -1.933238427651785514e+03 -1.315620462396503171e+03 -1.115753074229008917e+03 -1.007488793614881160e+03 -9.514459513106151007e+02 -7.128184638033259262e+02 -5.906107176225644935e+02 -4.862898210227717755e+02 -4.420791154860078791e+02 -4.195775554203030424e+02 -3.600328981623696905e+02 -3.499473569506212698e+02 -3.260935172062335141e+02 -3.422030739630835114e+02 -3.018794593277423814e+02 -2.795201655862513803e+02 -2.519323164376362740e+02 -2.703966440286849888e+02 -2.626839720067274584e+02 -2.469828250936456300e+02 -1.904673112203063567e+02 -1.484515883083126084e+02 -1.320259331843668065e+02 -9.909280366361008419e+01 -8.457231775094936665e+01 -6.970218934649543030e+01 -3.758575457256493024e+01 -8.723291461201972297e+00 -7.440671568247084089e+00 -7.610356560446366991e+00 1.087177128446047725e+01 -2.638542840491793484e+01 -3.523347608108044682e+01 -6.639021758091732295e+01 -7.621447596217778653e+01 -1.033444026744272719e+02 -1.150559467774122453e+02 -1.114483715515244739e+02 -1.037197269303302107e+02 -1.151207622851518124e+02 -1.276277627329530446e+02 -1.127482296410110223e+02 -1.186346590079119778e+02 -1.111656200928662770e+02 -1.162094807355271939e+02 -1.330489523556858842e+02 -1.508822270347444885e+02 -1.532248314215121070e+02 -1.728772089556251217e+02 -2.062155113745617143e+02 -2.908030829083336357e+02 -3.839373296569398804e+02 -3.565280359020368905e+02 -4.958804093924310905e+02 -8.303408571168936305e+02 -1.475407352504111486e+03 -2.268163996670371489e+03 -2.663568042491169763e+03 -2.155480946758913888e+03 -7.738766609712440641e+02 -6.503132144119323357e+02 -7.760448596155840733e+02 -2.044937900958368715e+01 -1.670201476306418442e+01 -4.940257628464884476e+00 5.163326927680997613e+01 3.941847625369224062e+01 2.666801904185018302e+01 1.087843961867961085e+01 8.627100309758956698e+00 1.061435449532094921e+01 3.387634227224912475e+00 5.433968420999928800e-02 -1.235945041539840794e+01 -3.724950240360299745e+02 -1.732908796476261386e+03 -2.705576038021713430e+03 -3.200110373668557713e+03 -3.637282264911697439e+03 -3.926905843290785469e+03 -4.096507505384071010e+03 -4.190667384896868498e+03 -4.279945187873363466e+03 -4.336339166368955375e+03 -4.390608916325541031e+03 -4.415857499604610894e+03 -4.530368041793894008e+03 -4.531466542370951174e+03 -4.567908909141017830e+03 -4.821386200184059817e+03 -4.938329576189887121e+03 -5.004894445006708338e+03 -5.287748389454645803e+03 -5.609643282653857568e+03 -5.806111778223377769e+03 -6.655838925723814100e+03 -6.758646372097229687e+03 -7.117614747711186283e+03 -8.309857912364121148e+03 -8.517410290191861350e+03 -8.601847279149285896e+03
-4.856073894642302548e+03 -4.850995751946393284e+03 -4.849863102441874616e+03 -4.842144075372541920e+03 -4.831398470304332477e+03 -4.831731916926757549e+03 -4.825566723409160659e+03 -4.821079888396759998e+03 -4.807832739574875632e+03 -4.806552436651740209e+03 -4.737515116426820896e+03 -4.616402738710045924e+03 -4.087324299739000708e+03 -2.888096284928337809e+03 -2.250843631437840031e+03 -1.683961634295015074e+03 -1.339226877994220786e+03 -1.184068414817983239e+03 -9.584875250613202979e+02 -8.949576279304321815e+02 -7.272678192052838995e+02 -7.568089628439283842e+02 -7.399303648115300120e+02 -5.695096617060701192e+02 -5.267909809975312783e+02 -4.196612710802014590e+02 -4.208302310943619773e+02 -3.610296892745058130e+02 -3.474803277385420870e+02 -3.347361809454615127e+02 -3.210203689257409110e+02 -3.002614168413556399e+02 -2.956477882078610264e+02 -2.777868315998078401e+02 -2.370836047291982993e+02 -2.265221144904126049e+02 -2.214696284420634242e+02 -1.982835090503327535e+02 -2.074154781988347054e+02 -1.751998589460286269e+02 -1.157008931010888091e+02 -5.481579733538857369e+01 -2.544429088602540290e+01 -4.853315621475219643e+01 -6.182245592329807948e+01 -4.803778500197130086e+01 -8.584511941281969882e+01 -9.233307696721735169e+01 -1.135736048404764631e+02 -1.289488058380908342e+02 -1.402382705788559178e+02 -1.379231786159720627e+02 -1.444801839473894063e+02 -1.449591661211832445e+02 -1.632929219096924669e+02 -1.629825882073523076e+02 -1.419752347661886063e+02 -1.394944409854886942e+02 -1.464286715277092412e+02 -1.467219239328810545e+02 -1.612579558565579134e+02 -1.849044048340149118e+02 -2.143356784590312145e+02 -2.412999084387042501e+02 -3.695148500989495801e+02 -4.563424785048017611e+02 -4.927717487956116429e+02 -5.324414513538986284e+02 -7.043133677434419724e+02 -1.300725746240303579e+03 -2.092911578337610990e+03 -1.990870659670744544e+03 -9.012602916718566348e+02 -2.490223119915600236e+01 -3.336404387871148458e+00 7.361753671937486843e+01 6.355228028707163190e+01 8.940277426335120481e+01 9.483638386403876552e+01 8.850376963514223405e+01 6.782982265506367980e+01 4.121283317157696047e+01 1.803964315623138503e+01 3.595657427133002848e+00 1.342126161927310823e+00 -6.358065297749998734e+00 -1.137939731260487619e+01 -2.265223166635029628e+01 -3.539385947297420216e+02 -1.399936806886279555e+03 -2.880889547188612596e+03 -3.315285471740757657e+03 -3.702331764641613972e+03 -3.911944617318971268e+03 -4.046818422504044065e+03 -4.206851019379067111e+03 -4.250454926692604204e+03 -4.317852891518147771e+03 -4.342182407180747759e+03 -4.357080029013287458e+03 -4.383996573307937069e+03 -4.383158350113198139e+03 -4.414548605376975502e+03 -4.507927262644813709e+03 -4.534641672835829013e+03 -4.503382343103270614e+03 -4.591860839606242735e+03 -4.720963009975078421e+03 -5.032932271054120974e+03 -4.837513908086832089e+03 -5.109787616128898662e+03 -5.383201883262134288e+03 -6.253274796240612886e+03 -6.598800414021469805e+03 -6.680773958816338563e+03
-4.886287050431303214e+03 -4.878857361433420920e+03 -4.872657757866933935e+03 -4.866550247031123035e+03 -4.861122435478506304e+03 -4.860122646298321342e+03 -4.857073610019861917e+03 -4.845389371080734236e+03 -4.841460320795366897e+03 -4.830461687722272472e+03 -4.840972989077287821e+03 -4.730850913969175053e+03 -4.321881919715110598e+03 -4.041103379619316911e+03 -3.003752834473067651e+03 -2.108410450971387036e+03 -1.751311822019297551e+03 -1.550457919032426616e+03 -1.220758113160939729e+03 -8.864344621088588383e+02 -8.787903244815069002e+02 -8.652358038147445995e+02 -8.678304105342118646e+02 -9.246564034881769203e+02 -9.017711911141351493e+02 -7.634940626048498871e+02 -8.844077487063950684e+02 -5.554109125229372239e+02 -4.124193883827592799e+02 -4.162021913357737048e+02 -3.855957510531905541e+02 -3.915295743102997221e+02 -3.523219678309818050e+02 -3.415391016899238821e+02 -3.024458405980013822e+02 -2.767193041964662825e+02 -2.765081863254779364e+02 -2.631570179872673521e+02 -2.420538511978342626e+02 -2.344079155905253629e+02 -2.026987186724409469e+02 -1.571447170274279586e+02 -1.207422591316297940e+02 -1.487431963869593687e+02 -1.275915694819556023e+02 -1.208441188407578437e+02 -1.198327243570972058e+02 -1.511015988724952308e+02 -1.359620509380169153e+02 -1.655133503996239597e+02 -1.854074712679454535e+02 -1.997857049470420350e+02 -1.743040859316004401e+02 -1.857977568776425699e+02 -1.758722180544646676e+02 -1.903279482817171697e+02 -1.969092116459531496e+02 -1.928441429088293546e+02 -1.956633359789081226e+02 -1.772878893936746465e+02 -2.047033949978980729e+02 -2.226483147931207611e+02 -2.525167297164305751e+02 -2.704124964854352129e+02 -3.808113922563664460e+02 -4.154738833296702865e+02 -4.515642658870088439e+02 -5.114884911605634557e+02 -5.683541638793793709e+02 -7.524965587288397728e+02 -8.078028159404044573e+02 -5.147411695004846024e+02 -1.438948953516605656e+01 7.146475008208035717e+01 2.924995049563407790e+01 9.726785462232011525e+01 1.239116684060395102e+02 1.576151549224954636e+02 1.492245355070890867e+02 1.052912409440515091e+02 8.294999074820529472e+01 4.924832239054254757e+01 2.293320595886062208e+01 -4.492491586976623985e+00 -1.292330335988977730e+01 -4.472075124783921751e+01 -4.889707471864512911e+01 -3.075801608854565643e+02 -1.085873876523787430e+03 -2.376801717278918659e+03 -2.930539649493085562e+03 -3.410189545804573299e+03 -3.728081478687464369e+03 -3.945998291127498760e+03 -4.101674615877711403e+03 -4.160980575125773612e+03 -4.241192004907136834e+03 -4.309775078509408559e+03 -4.340890565389890071e+03 -4.361895618775824005e+03 -4.371961243736063807e+03 -4.380145472765071645e+03 -4.391178735218027214e+03 -4.407037333727234909e+03 -4.415800849390880103e+03 -4.418049244935931711e+03 -4.439486007797942875e+03 -4.476495147013356473e+03 -4.569948493999565471e+03 -4.525202670005470281e+03 -4.517765606554667102e+03 -4.544534587874334647e+03 -4.862303228033868436e+03 -5.177692035566285995e+03 -5.070422900729742651e+03
-4.923656681162095083e+03 -4.908694835240049542e+03 -4.909193083676715105e+03 -4.891108380257207500e+03 -4.888800414080085829e+03 -4.889266736902458433e+03 -4.884640856851996432e+03 -4.884739155782693160e+03 -4.876916895800150996e+03 -4.886880159948044820e+03 -4.861816540494608489e+03 -4.832497944545851169e+03 -4.560073291774479003e+03 -4.321638145157662620e+03 -3.956988918699256374e+03 -3.199224073359958311e+03 -3.086326585332737068e+03 -2.405019259036493622e+03 -1.974584857836458241e+03 -1.737192722982667192e+03 -1.059572211655302908e+03 -1.049164127370987217e+03 -9.569002452882655234e+02 -9.969663836783420265e+02 -1.089599996442746260e+03 -1.216620152463836121e+03 -1.169857132890849925e+03 -8.806460633824300430e+02 -8.194098815287718480e+02 -5.423493685738650356e+02 -4.622641687316987600e+02 -5.294134726215467026e+02 -4.196095810760323843e+02 -4.147135310580874261e+02 -3.682888696921249334e+02 -3.631184577662573929e+02 -3.572564803635591488e+02 -3.403661000860166155e+02 -2.827774131072794717e+02 -2.569918098787944132e+02 -2.579725634807020924e+02 -2.321968916237679252e+02 -2.151216769144860166e+02 -2.210711219553633384e+02 -2.041717884901363504e+02 -1.991893278442853159e+02 -2.096929193181165942e+02 -2.065049041483334520e+02 -1.993962924576005946e+02 -2.104006007209310951e+02 -2.214572972317351116e+02 -2.321017983722323095e+02 -2.228077832900532371e+02 -2.141876782849071219e+02 -2.203860914777178266e+02 -2.369160033009846416e+02 -2.325473367152082744e+02 -2.223123936783282488e+02 -2.193460134935286305e+02 -2.086675307012431517e+02 -2.145909711186320408e+02 -2.231721787655978915e+02 -2.234331129663237903e+02 -2.624856139757202982e+02 -3.226573025150397598e+02 -3.884628528354323862e+02 -3.535988481461087645e+02 -3.441180541409238458e+02 -3.457193927892647594e+02 -2.794288003814918397e+02 -1.296793198785455559e+02 -2.537004628105478687e+01 9.334498686157785130e+01 1.547711872946182439e+02 1.028259929584604322e+02 2.269158020764035655e+02 2.295765126485453322e+02 2.236622082418010962e+02 1.892005377806987951e+02 1.385375273685428965e+02 7.476480552456020234e+01 4.167430889766779245e+01 2.830283332913196759e+01 -2.296712359837396988e+01 -8.379006394116655088e+01 -2.390610179642182231e+02 -5.446854287212291865e+02 -1.162613879246019451e+03 -2.077626740714793414e+03 -2.557810022837355518e+03 -2.880969347842864863e+03 -3.208745114675568857e+03 -3.667592750620978677e+03 -3.872733058979870293e+03 -4.022005884535907171e+03 -4.154397386687211110e+03 -4.267094505041695811e+03 -4.309092621653821880e+03 -4.361652226622856688e+03 -4.376300425548719431e+03 -4.390694196648490106e+03 -4.400554764382430221e+03 -4.410751918914798807e+03 -4.414404393911971965e+03 -4.413784372687227915e+03 -4.422886149238966027e+03 -4.426374515133472414e+03 -4.427739763115460846e+03 -4.418338339745843768e+03 -4.420481505651694533e+03 -4.403973592622506658e+03 -4.444907525190275010e+03 -4.534337533439630533e+03 -4.508531078690548384e+03 -4.486689967306610015e+03
