-7.496505502614571014e+03 -7.513036861153933387e+03 -7.530049112031352706e+03 -7.542736204499501582e+03 -7.562047419273736523e+03 -7.575245316884627755e+03 -7.593333650142529223e+03 -7.600393555032610493e+03 -7.612016876726965165e+03 -7.624803612008431628e+03 -7.632839538949885537e+03 -7.641948595589016804e+03 -7.652648136755164160e+03 -7.697396898300246903e+03 -7.811766394460740230e+03 -7.869046276240081170e+03 -7.908293200716816500e+03 -7.939843737920633430e+03 -7.937874312839515369e+03 -7.939807780066545092e+03 -7.941758934009426412e+03 -7.944018359137044172e+03 -7.941129018968134915e+03 -7.940193855193754644e+03 -7.935785987605704577e+03 -7.935003261371428380e+03 -7.936637886932901893e+03 -7.937761790017214480e+03 -7.942075148419261495e+03 -7.947898972639253770e+03 -7.951717936544829172e+03 -7.959154761873487587e+03 -7.975117965342345087e+03 -7.987306576414789561e+03 -8.002008726794279937e+03 -8.019353733359949729e+03 -8.037337121625904729e+03 -8.047886463435642327e+03 -8.059308523770973807e+03 -8.076893412471726151e+03 -8.085032695722404242e+03 -8.099778523030466204e+03 -8.107378836473183583e+03 -8.115982891185820336e+03 -8.122570955760147626e+03 -8.125776539324487203e+03 -8.128424864095331941e+03 -8.128572991016216292e+03 -8.127801401446502496e+03 -8.124259708785666589e+03 -8.114080694749859504e+03 -8.105303281395913473e+03 -8.091674297029365334e+03 -8.083686945344404194e+03 -8.069151238567887049e+03 -8.060965536246365446e+03 -8.053734033811940208e+03 -8.047993412766399160e+03 -8.051474316606620960e+03 -8.055918367561974264e+03 -8.037390123005528039e+03 -7.992461060645510770e+03 -7.985819683299418102e+03 -7.980221566895482283e+03 -7.983455039919951560e+03 -7.966249935793788609e+03 -7.918649168627881409e+03 -7.875983986332523273e+03 -7.830259025709628077e+03 -7.603832959395111175e+03 -7.259284143656226661e+03 -6.212522281608876256e+03 -5.328382210842991299e+03 -4.665710991804164223e+03 -3.867161676112260466e+03 -3.100681917320513548e+03 -2.436978845220592120e+03 -1.627778869715289829e+03 -1.366054592077114648e+03 -1.264327776837350029e+03 -1.185669043865121694e+03 -1.096436916035059312e+03 -9.138297655541821314e+02 -5.616574402957032817e+02 -4.728615268552334783e+02 -5.389910305405149984e+02 -6.718407958134815772e+02 -6.583002781095643741e+02 -1.357628644950320222e+03 -2.027573701886697563e+03 -2.137196020798135578e+03 -2.653019633306148535e+03 -3.020263794990082260e+03 -3.117011783345007643e+03 -3.453835484035686477e+03 -2.467536469318902618e+03 -6.223293014967155159e+02 -5.807617659160544576e+01 -1.003759511766202905e+02 -1.084982627285887247e+03 -2.965517974560406401e+03 -5.815022155047588967e+03 -8.529700478888522412e+03 -1.073284505471735247e+04 -1.324035260534324516e+04 -1.527542530563867695e+04 -1.556999234082285875e+04 -1.563019976260357726e+04 -1.597338548152270050e+04 -1.636202305774934030e+04 -1.736368061848942307e+04 -1.777282888136492329e+04 -1.814170883787349521e+04 -1.834992388914346884e+04 -1.843962016537586169e+04
-7.503187014796209041e+03 -7.519492587586303671e+03 -7.542232526354853690e+03 -7.550149712351173548e+03 -7.562985948487511450e+03 -7.579212341201732670e+03 -7.594036405536018719e+03 -7.604564137185525396e+03 -7.615280719371005944e+03 -7.621621755511869196e+03 -7.628297685496499980e+03 -7.644757084056209351e+03 -7.649094237209469611e+03 -7.668717201344868045e+03 -7.707937694247274521e+03 -7.806193166510834089e+03 -7.888053298620642636e+03 -7.928300606484855962e+03 -7.943513395783010310e+03 -7.948355265906382556e+03 -7.948469327457549298e+03 -7.949362836732797405e+03 -7.948366652839549715e+03 -7.947979178890108415e+03 -7.948815530705423953e+03 -7.946020058623119439e+03 -7.948150896215060129e+03 -7.946677351712223754e+03 -7.952809852875931938e+03 -7.956547577854492374e+03 -7.971571496460250273e+03 -7.980347309283757568e+03 -7.987774121041366925e+03 -7.999886754013652535e+03 -8.016664382994325024e+03 -8.031723202649151062e+03 -8.048760161278061787e+03 -8.060321818615127995e+03 -8.077074876696475258e+03 -8.083535385328560551e+03 -8.096789802070526093e+03 -8.112180786214844375e+03 -8.124445491469913577e+03 -8.124696267169375460e+03 -8.130577527851056402e+03 -8.132390794319827364e+03 -8.134026551865182228e+03 -8.134398386447248413e+03 -8.131956231345120614e+03 -8.127937944502196842e+03 -8.122055813571820181e+03 -8.112524624335435874e+03 -8.097323027940687098e+03 -8.087550086781715436e+03 -8.072822855966363932e+03 -8.065459154901587681e+03 -8.055699948557111384e+03 -8.051473742819868676e+03 -8.051834010523187317e+03 -8.061180438446161133e+03 -8.069184164086565033e+03 -8.020872709337094420e+03 -7.978076393590208681e+03 -7.971987050679978893e+03 -7.955794524826010274e+03 -7.918589430457949675e+03 -7.904286189168103192e+03 -7.867596118194797782e+03 -7.812953360315498685e+03 -7.425316299306507972e+03 -6.821582635663809924e+03 -5.933331862506436664e+03 -5.011833255545435350e+03 -4.247989695676429619e+03 -3.572488575376404242e+03 -2.660859376876716851e+03 -1.980930554113544531e+03 -1.461710951016826129e+03 -1.305901194361590569e+03 -1.228268590355747847e+03 -1.192995570879023944e+03 -1.235831836188389843e+03 -1.150873145610232086e+03 -9.336595017068165134e+02 -8.153392851846355143e+02 -7.663731143678456874e+02 -6.223778965184777690e+02 -4.295647821046861736e+02 -3.722814532474731095e+02 -4.152696759847585213e+02 -6.215924198840401687e+02 -1.265083684352347746e+03 -1.473769630395276863e+03 -1.548775949467670898e+03 -1.637671476854976390e+03 -1.434092652397016991e+03 -5.656507123651397251e+02 -5.760279626869961334e+01 -8.779607242737432671e+01 -5.564979574226603063e+02 -1.644021241517991484e+03 -5.608857062520987711e+03 -7.734230471543217391e+03 -9.591414629850811252e+03 -1.216062892132799607e+04 -1.474206020797864949e+04 -1.574264947981612568e+04 -1.559556399177168169e+04 -1.597499897813264397e+04 -1.661803557800403723e+04 -1.707397840787393943e+04 -1.768535874374429841e+04 -1.803059388998175564e+04 -1.829590424145818179e+04 -1.831967191953885413e+04
-7.515333665108582863e+03 -7.526847843296233805e+03 -7.546089872616782486e+03 -7.555973446696537394e+03 -7.573595891166690308e+03 -7.582330673785303588e+03 -7.597401812009481546e+03 -7.607348313693892123e+03 -7.615931502979272409e+03 -7.624789035397740918e+03 -7.633001056650084138e+03 -7.638473586205942411e+03 -7.647439532072799011e+03 -7.660077044919566106e+03 -7.660809030780800640e+03 -7.706315076838583991e+03 -7.830265177342068455e+03 -7.895637716202612864e+03 -7.937721609737664949e+03 -7.952956653206461851e+03 -7.952219593957032885e+03 -7.956071124350387436e+03 -7.955451389163757085e+03 -7.955822908490634291e+03 -7.954107005275081065e+03 -7.954493135882060415e+03 -7.957020079853988136e+03 -7.961108732870802669e+03 -7.967085710518847009e+03 -7.976679801585572932e+03 -7.986227775790795022e+03 -7.992532108628574861e+03 -8.004379336594971392e+03 -8.020647663888642455e+03 -8.031165353327473895e+03 -8.045220393975019761e+03 -8.060756878687444441e+03 -8.079594796790620421e+03 -8.090342175633774787e+03 -8.105809007802628912e+03 -8.116144423563062446e+03 -8.118121622625272721e+03 -8.131644413981626712e+03 -8.137713545131484352e+03 -8.139979637896917666e+03 -8.142748463563548285e+03 -8.143074874331151477e+03 -8.139152614686593552e+03 -8.138575464905548870e+03 -8.132563597622547604e+03 -8.125748996466135395e+03 -8.117184349967292292e+03 -8.102917293387406971e+03 -8.096442076728590109e+03 -8.080494093695559968e+03 -8.071320822627186317e+03 -8.062849125194507906e+03 -8.055366646478896655e+03 -8.054700272105298609e+03 -8.062710296084504080e+03 -8.069949172786636154e+03 -8.017556237364213302e+03 -7.977498214064341482e+03 -7.967452367886472530e+03 -7.941510132010850612e+03 -7.890458750794163279e+03 -7.891529410752358672e+03 -7.854771870312919418e+03 -7.792343758929575415e+03 -7.427266384644155551e+03 -6.570838850946012826e+03 -6.209499133090189389e+03 -4.930048241908117234e+03 -4.273621613401605828e+03 -3.234987023446987223e+03 -2.501776159903702592e+03 -1.669479533929322315e+03 -1.386900953328137575e+03 -1.328843522463945646e+03 -1.312613907138534387e+03 -1.399976857099574545e+03 -1.389240867077618532e+03 -1.037394868109233812e+03 -8.852291725693186208e+02 -3.819167015893574444e+02 -1.069781242854021315e+02 -1.527993855786139648e+02 -1.008207103757549845e+02 -1.094143437641408525e+02 -1.750494515897425458e+02 -4.545267237025798295e+02 -6.941833127221950690e+02 -8.819996725341306956e+02 -8.285916397283556307e+02 -9.704896244842211672e+02 -6.564230357026057163e+02 -1.246645001880892494e+02 -5.029597501440078133e+01 -5.854497622154306669e+01 -6.178535194181883838e+01 -2.558422311372342790e+02 -1.678653892692382669e+03 -3.541707383814105469e+03 -8.900203902814524554e+03 -1.246588055933050782e+04 -1.386664276687314123e+04 -1.516179146274882805e+04 -1.587596529595487664e+04 -1.603139124468383488e+04 -1.627183133663771878e+04 -1.701371255773372104e+04 -1.737017230847027167e+04 -1.781966487232789223e+04 -1.796969989749609886e+04 -1.809286168597168216e+04
-7.523878604000929045e+03 -7.536798799428479469e+03 -7.552183568143747834e+03 -7.570691586617213943e+03 -7.575290974514574373e+03 -7.591020428110684406e+03 -7.600810352573273121e+03 -7.608501870689286989e+03 -7.615872510351997335e+03 -7.625259928483285876e+03 -7.632991010568118327e+03 -7.642468112997494245e+03 -7.648224575558604556e+03 -7.658286951291430341e+03 -7.666693956813766818e+03 -7.694583664155552469e+03 -7.734508003860282770e+03 -7.823045903820107924e+03 -7.898741630407032972e+03 -7.944585480046753219e+03 -7.959122688710474904e+03 -7.961360356046352535e+03 -7.964059620947767144e+03 -7.962146118480598489e+03 -7.963798947030229101e+03 -7.965863946205337925e+03 -7.966770876898986899e+03 -7.973704620912032624e+03 -7.980607310679447437e+03 -7.988708533450639152e+03 -7.998033783062874136e+03 -8.001203928447209364e+03 -8.000982157713179731e+03 -8.018857179344452561e+03 -8.032641914221744628e+03 -8.058669364381909872e+03 -8.082803465944240088e+03 -8.094343744775969753e+03 -8.105942949919767671e+03 -8.117707430700961595e+03 -8.129309475812743585e+03 -8.141720548346458600e+03 -8.148483374811508838e+03 -8.150980084611274833e+03 -8.153937460441381518e+03 -8.156411141936095191e+03 -8.152367748060252779e+03 -8.147632291547828572e+03 -8.143223505969217513e+03 -8.140076465242615086e+03 -8.132094997992098797e+03 -8.121700416914130983e+03 -8.111779232869647785e+03 -8.094846333717357084e+03 -8.088135692252561057e+03 -8.074850905100892305e+03 -8.067788515420264957e+03 -8.058331044690029557e+03 -8.057020230991372955e+03 -8.059359834960913759e+03 -8.074697749445166664e+03 -8.034675012728474030e+03 -7.968417190137131001e+03 -7.984120182794247739e+03 -7.952798756983366729e+03 -7.914877886793583457e+03 -7.891991258894078783e+03 -7.870346599626474017e+03 -7.763704229289226532e+03 -7.650404931590344859e+03 -7.084158605240398174e+03 -6.292326340496206285e+03 -5.215305805360921113e+03 -4.076473537291011780e+03 -3.181584776314815372e+03 -2.208274541276262880e+03 -1.739237245675650911e+03 -1.463406257525917681e+03 -1.506940174923015547e+03 -1.166561909367339695e+03 -7.134699026372869639e+02 -6.688033281246802062e+02 -4.940027551214653840e+02 -4.532580014989059123e+02 -9.221326518440930897e+01 -2.953609985033407170e+01 -3.321736662288913777e+01 -1.926733656351219892e+01 -5.007609486035960344e+01 -3.110004765213234634e+01 -3.686143985332913076e+01 -1.964209221090893607e+02 -2.879204536965881402e+02 -4.079978104335669968e+02 -4.394086538744409722e+02 -2.330697276955538939e+02 -9.402415007138232284e+01 -4.539123908864610968e+01 -4.587654448562919640e+01 -5.108419357868608301e+01 -6.204768316690556418e+01 -5.684300502300422977e+02 -1.693849290332927694e+03 -5.148546526079761861e+03 -1.044751981238442204e+04 -1.269072618327132659e+04 -1.467716037446776500e+04 -1.629711234881883865e+04 -1.634111055808996753e+04 -1.632436499920711321e+04 -1.646330500363741521e+04 -1.715836014570558473e+04 -1.751829538184468038e+04 -1.773418371774246771e+04 -1.794750472529740728e+04
-7.537900978772190683e+03 -7.545604932474884663e+03 -7.554933978548896448e+03 -7.573719188101050349e+03 -7.583751526873754301e+03 -7.593188110611980846e+03 -7.604579855854427478e+03 -7.612140659778553527e+03 -7.619513938484752543e+03 -7.626541353946190611e+03 -7.631956192613898565e+03 -7.641856822509815174e+03 -7.648657825016121024e+03 -7.657365920479622218e+03 -7.671480521185797443e+03 -7.680486969750900244e+03 -7.704529013167459198e+03 -7.763573301360301230e+03 -7.860878974093650868e+03 -7.948772372550942237e+03 -7.965953778703133139e+03 -7.972143694277906434e+03 -7.970267897740100125e+03 -7.969093145169650597e+03 -7.971942596243604385e+03 -7.979208649912709006e+03 -7.979568784231310019e+03 -7.987757868569528910e+03 -7.989996573099820125e+03 -7.991223686387705129e+03 -7.996478320453738888e+03 -7.983861717294580558e+03 -7.919880391147907176e+03 -7.854005821668182762e+03 -7.932251681716959865e+03 -8.013189908027396086e+03 -8.067332209044667252e+03 -8.085763271268890094e+03 -8.104905235793689826e+03 -8.126859132462103844e+03 -8.135659280884678083e+03 -8.149378506143524646e+03 -8.160920089678023032e+03 -8.172107610576656043e+03 -8.166499134315610718e+03 -8.167101916643023287e+03 -8.160788780733068052e+03 -8.157702554262622471e+03 -8.152645454874071220e+03 -8.143974534027057416e+03 -8.136958943671535962e+03 -8.123912934670187497e+03 -8.114058813029620978e+03 -8.098844953350076139e+03 -8.092570794489402033e+03 -8.077074017703718710e+03 -8.071556820492080988e+03 -8.062703460258851010e+03 -8.058484157183570460e+03 -8.061871751964167743e+03 -8.061961249956327265e+03 -8.015965637953861005e+03 -7.974218858529303361e+03 -7.982150437366394726e+03 -7.954252714986415413e+03 -7.898847199154679402e+03 -7.885106694932497703e+03 -7.875135379437680058e+03 -7.803137860359943261e+03 -7.626577753557417054e+03 -7.279017578753099770e+03 -6.546973624318606198e+03 -4.636213154555255642e+03 -4.223474577359272189e+03 -2.939025602265373436e+03 -2.223052253312280300e+03 -2.027976837417409342e+03 -1.594150718638526087e+03 -1.351094152805186695e+03 -6.430573700971740436e+02 -2.447538658072558064e+02 -9.304650779618532397e+01 2.617895077289774264e+01 4.544624423047545037e+01 5.389221505111336086e+01 1.551601641122432262e+01 2.512092000041133488e+01 5.622916597690120710e+01 4.634366825767153131e+01 2.681615951211164273e+01 4.254007918364084162e+01 -4.427408387953602187e+01 -2.409397283974710149e+02 -4.625361560675968349e+02 -4.946196741920485351e+02 -2.483253839717098970e+02 -1.531455592837344000e+02 -4.362668383347729417e+01 -3.670416125852983669e+01 -4.092967562880398447e+01 -5.441869915228385679e+01 -1.583109914805422136e+02 -5.334418870031009874e+02 -1.972049679539020644e+03 -3.605735306060646508e+03 -9.674414232288414496e+03 -1.303612952109654907e+04 -1.500331066125786856e+04 -1.540287097122410887e+04 -1.591936191528083145e+04 -1.646892122757693141e+04 -1.704699570214984124e+04 -1.741700828280029600e+04 -1.756833232248565764e+04 -1.800117569204894971e+04
-7.550699113270806265e+03 -7.557696800323037678e+03 -7.573361750723654950e+03 -7.583987487150374363e+03 -7.590418548840405492e+03 -7.599809716807295445e+03 -7.605923367724077252e+03 -7.614480881253547523e+03 -7.620325403427184028e+03 -7.627395335202228125e+03 -7.634696286614054770e+03 -7.643053966615705576e+03 -7.649631685232666314e+03 -7.659735107176281417e+03 -7.670074268582121476e+03 -7.682472661439701369e+03 -7.696210245006556761e+03 -7.736484641281820586e+03 -7.805611632278999423e+03 -7.904709333250704731e+03 -7.962340916939611816e+03 -7.977752422585439490e+03 -7.975360364881267742e+03 -7.978584751234207943e+03 -7.985879965990006895e+03 -7.992532285996375322e+03 -7.990821566017107216e+03 -7.982412712961090620e+03 -7.983884612263253075e+03 -7.958725037739889558e+03 -7.827292171504887847e+03 -7.776791533040823197e+03 -7.816345533876234185e+03 -7.452414197213547595e+03 -7.540427497420078907e+03 -7.727624964949965943e+03 -7.844317524155878345e+03 -7.952641658083124639e+03 -8.012050650469286666e+03 -8.041849850341892306e+03 -8.089031787252580216e+03 -8.119305136944045444e+03 -8.153586013077054304e+03 -8.161591061847273522e+03 -8.179196168567511450e+03 -8.176417360249397461e+03 -8.172211177934783336e+03 -8.165322075306407896e+03 -8.161047150882040114e+03 -8.150244287309866195e+03 -8.139690929387179494e+03 -8.125690084104112429e+03 -8.117039480524974351e+03 -8.106355119190709047e+03 -8.094736407038295511e+03 -8.084368896304196824e+03 -8.071103186882793125e+03 -8.065510926397508229e+03 -8.059810950112033424e+03 -8.061881531982405249e+03 -8.071301145231043847e+03 -8.052388733594983933e+03 -7.991354326670034425e+03 -7.974416737792907043e+03 -7.961808684389396149e+03 -7.917647051788818317e+03 -7.892928706620683442e+03 -7.852880294382784086e+03 -7.789580564358634547e+03 -7.627672707655620798e+03 -7.140290439384043566e+03 -6.239006719216386045e+03 -4.835843616721641411e+03 -3.773836974097928760e+03 -2.253661972564704683e+03 -1.270078383837745378e+03 -1.268971114696262703e+03 -9.490631097591348180e+02 -7.144713935489062351e+02 -1.903256889947139143e+02 -1.044281127479214035e+02 3.920016586218418553e+01 6.025373315266068630e+01 7.828713087665107651e+01 9.356381102311108577e+01 1.172788728689940854e+02 1.066686145037309359e+02 1.131633366245875294e+02 9.457764885348075268e+01 1.197798377353500712e+02 9.158640123569108482e+01 7.818884119307998048e+01 -5.256820554806534318e+01 -5.009877187262724760e+02 -1.120975484300500739e+03 -9.773004759683423117e+02 -5.427536785444974612e+02 -2.929500830418331816e+02 -3.249635432206033414e+01 -3.286622429006585833e+01 -4.915683466048914596e+01 -6.311274696992268929e+01 -4.251433497757707869e+02 -8.490101600034662397e+02 -2.188451356578704235e+03 -4.617432843755235808e+03 -1.054984330206255254e+04 -1.448472136048422544e+04 -1.523569172143945070e+04 -1.537080322498572787e+04 -1.603102906065606840e+04 -1.668511666076594702e+04 -1.713360829157046101e+04 -1.751064396696699259e+04 -1.802759077880663244e+04
-7.562853182098663638e+03 -7.568566547911683301e+03 -7.576283332858136419e+03 -7.587123443961645535e+03 -7.596020424414366971e+03 -7.603168950149076409e+03 -7.610714853622313058e+03 -7.618255906928793593e+03 -7.623996701419674537e+03 -7.631299484719287648e+03 -7.637382843038199098e+03 -7.642704432509947765e+03 -7.654899444248902910e+03 -7.660212725876801414e+03 -7.673530283589707324e+03 -7.683895252786401215e+03 -7.700361627808586491e+03 -7.711951231355106756e+03 -7.772534497655143241e+03 -7.830129142680410041e+03 -7.914486754631969234e+03 -7.957534381783164463e+03 -7.968639502949590678e+03 -7.978723098685687546e+03 -7.994687579133591498e+03 -8.003709731928423025e+03 -7.972275668385796052e+03 -7.915250865290429829e+03 -7.853547982000347474e+03 -7.767315487004228999e+03 -7.658713769209476595e+03 -6.786683698128121250e+03 -6.125674996555767393e+03 -6.142632950098615765e+03 -6.547705645400798858e+03 -7.341273532965607046e+03 -6.690206986807086651e+03 -7.234935189407338839e+03 -7.485183957470067980e+03 -7.786447373917309051e+03 -7.833490629590449316e+03 -7.970632401469512843e+03 -8.073081912319441471e+03 -8.110582929172291188e+03 -8.149071010530942658e+03 -8.168170064173832543e+03 -8.177399248038125734e+03 -8.171111594061898359e+03 -8.164109159927364090e+03 -8.154516881298184671e+03 -8.142881938831043954e+03 -8.133107272807716981e+03 -8.124036563716624187e+03 -8.120036026396840498e+03 -8.103242168234877681e+03 -8.096937472933727804e+03 -8.077877653814998666e+03 -8.072754297962954297e+03 -8.060785175122422515e+03 -8.062436179061439361e+03 -8.068999674754611988e+03 -8.087444171309795820e+03 -8.001320571380399997e+03 -7.963671652012403683e+03 -7.940748917796632668e+03 -7.869611932762731158e+03 -7.842379469827274988e+03 -7.763020700464581751e+03 -7.682732521956496385e+03 -7.653085089234127736e+03 -7.185312751830397247e+03 -5.651488587625338369e+03 -4.591274745490661189e+03 -2.952375574913598939e+03 -1.512830587832925630e+03 -7.991313501402761403e+02 -7.459414849528010905e+01 -1.731388060425756805e+02 -2.137856685674935164e+01 1.908100226047376324e+01 6.873006865979013469e+01 8.778953427671096676e+01 2.226442553060810212e+02 3.912403620507965911e+02 3.809980557325669679e+02 4.422857189833077882e+02 3.367120916966279083e+02 2.687879016595737767e+02 2.197616025650528684e+02 2.292454371429361686e+02 1.970723916194320395e+02 8.293449315092958329e+01 2.063325400375410723e+01 -3.815524481070373213e+02 -1.295935587980774699e+03 -2.765920769953007493e+03 -1.973108176397430725e+03 -1.256360458419285123e+03 -3.072259820815499438e+02 -3.304335677927599590e+02 -1.033962321123717771e+02 -1.009248109659552739e+02 -1.657422294384447241e+02 -5.371039630098512134e+02 -8.367917653129500195e+02 -2.802614466932630421e+03 -1.072016198894005538e+04 -1.438758189982225485e+04 -1.551436651184038965e+04 -1.569187608705421735e+04 -1.617456002193581480e+04 -1.662548382290098016e+04 -1.712894556358271075e+04 -1.746014815057492160e+04 -1.789265371088852407e+04
-7.572212606669329034e+03 -7.579650199071405041e+03 -7.587204484121045425e+03 -7.596709430736829745e+03 -7.605695051815052466e+03 -7.610668689546803762e+03 -7.614318534315295437e+03 -7.620205592649092978e+03 -7.627031625894115678e+03 -7.633731018260761630e+03 -7.639939315398089093e+03 -7.646221466423279708e+03 -7.656740504884031907e+03 -7.663510283601347510e+03 -7.675634309330740507e+03 -7.690187087481685921e+03 -7.701822626996448889e+03 -7.711145784734560948e+03 -7.716733580335307124e+03 -7.710488282923933184e+03 -7.829968857160784864e+03 -7.888627137097211744e+03 -7.951643070564794471e+03 -7.934691085862715227e+03 -7.975854868403837827e+03 -7.945081699965565349e+03 -7.913413809572177342e+03 -7.647427201348185918e+03 -7.158413520398271430e+03 -6.483734348800256157e+03 -6.589528330888545497e+03 -4.835698106421851662e+03 -4.360684379657360296e+03 -4.019470538698165910e+03 -4.105171093821273644e+03 -4.062536343534774005e+03 -5.153635533421069340e+03 -5.861807845530833220e+03 -5.668881110710181929e+03 -6.787624896264526797e+03 -6.733159454677804206e+03 -7.450867681222123792e+03 -7.818370618248203755e+03 -7.982483988693160427e+03 -8.077887077548279194e+03 -8.099388463225863234e+03 -8.178266201366951464e+03 -8.156012824254399675e+03 -8.122834056112381404e+03 -8.141936901905033665e+03 -8.142653508376103673e+03 -8.138246559544664706e+03 -8.136424560619274416e+03 -8.134652547561226129e+03 -8.126788189165504264e+03 -8.117949332345046059e+03 -8.102837473911724373e+03 -8.084954327952108542e+03 -8.071412016748039605e+03 -8.065081660674873092e+03 -8.066395905757134642e+03 -8.072544826355378973e+03 -8.030249333068083615e+03 -8.033852718292396276e+03 -7.946320317130439435e+03 -7.818597836643950359e+03 -7.686863867950727581e+03 -7.673478381347386858e+03 -7.559438538837139276e+03 -7.192687988295047035e+03 -6.979238130400541195e+03 -4.876790556757085142e+03 -3.116087955301379679e+03 -2.049406900982043226e+03 -7.374016733193864184e+02 -1.104973088427916252e+02 -2.444976526251465998e+01 -2.462003241795805408e+01 -1.995890875906288553e+00 4.793293038674224249e+01 1.392723800509677403e+02 2.210303517067980010e+02 3.765416410020359308e+02 7.494010623087276599e+02 7.341635077601245030e+02 6.267418810981727120e+02 7.120478133578017150e+02 8.392713222593516775e+02 6.757765342200430041e+02 5.319062153616165460e+02 3.762105184435796446e+02 7.703651482225413361e+01 1.071823698089262500e+01 -8.176326791181477915e+01 -6.860543255362078980e+02 -3.931074386022367435e+03 -4.413979165363343782e+03 -2.688041060586177537e+03 -2.228906878810112175e+03 -1.208010837808557426e+03 -1.154614889868363207e+03 -7.394363935706144275e+02 -5.758851530139777424e+02 -5.427753554214406222e+02 -9.935417542481601458e+02 -1.832502191498550019e+03 -6.231053153168147219e+03 -1.585839506353650359e+04 -1.583120239070770731e+04 -1.586650242875969343e+04 -1.650059557561908150e+04 -1.702780322994750895e+04 -1.714016634149578022e+04 -1.744079468543365510e+04 -1.778693257085081859e+04
-7.583958797240804415e+03 -7.589511920874942916e+03 -7.596134256854727937e+03 -7.604433804319284718e+03 -7.609523740917501527e+03 -7.616304668335058523e+03 -7.624388260941951557e+03 -7.626232609454712474e+03 -7.633705500519990892e+03 -7.637645748779478708e+03 -7.642846907059368277e+03 -7.650667676000321080e+03 -7.660760700671413360e+03 -7.670296546376215701e+03 -7.684143534082262704e+03 -7.696380613984337288e+03 -7.708396707144065658e+03 -7.693600473586749104e+03 -7.639016353212908143e+03 -7.506957173297538247e+03 -7.321741173346090363e+03 -6.942766586425219430e+03 -7.319783880520979437e+03 -7.602894960716362220e+03 -7.759689120752349481e+03 -7.702159131903255002e+03 -7.371698113295491567e+03 -6.835534363672833933e+03 -6.091868942488590619e+03 -5.241680867637717711e+03 -4.021523817909572244e+03 -3.049506067550764783e+03 -2.455468642121827088e+03 -2.428979245879010250e+03 -2.700379799094013833e+03 -2.988194093347751732e+03 -3.335640232838555221e+03 -3.247227073367332650e+03 -3.767650644213338637e+03 -4.940997679947500728e+03 -5.241587923913438317e+03 -6.364963639211319787e+03 -7.313162896388733316e+03 -7.746192142839917324e+03 -7.739819530201409179e+03 -7.894007441894053954e+03 -7.965844367840249106e+03 -7.956765310613358452e+03 -8.024610171992985670e+03 -8.106376837371441979e+03 -8.135940152238264091e+03 -8.147394000363373380e+03 -8.155851486262127764e+03 -8.112443651058425530e+03 -8.129874813032427483e+03 -8.170416064054366871e+03 -8.151430745816995113e+03 -8.121313468948107584e+03 -8.079980556987492491e+03 -8.068969322196057874e+03 -8.047977624523636223e+03 -8.020492867648301399e+03 -7.990218285152302087e+03 -7.880043393259507866e+03 -7.747574165689171423e+03 -6.950882887656927778e+03 -7.168462043827476009e+03 -6.915621661115796996e+03 -6.397290647911315318e+03 -5.468534907998174276e+03 -4.340752238462849164e+03 -2.320565050355358835e+03 -1.927331652452269282e+03 -7.483320361034110419e+02 -4.801769318804824138e+01 -1.472732225026611985e+01 -5.957600644983328309e+00 3.121151117831028898e+01 3.676737059330555013e+01 8.271642049123906304e+01 1.235374158041462493e+02 2.074000395751948531e+02 3.488172131264096834e+02 7.776785472065930662e+02 1.005148060249105470e+03 1.238627199427108508e+03 1.224553024990103268e+03 1.227220416226408815e+03 9.451443974500843979e+02 1.014290824814761891e+03 9.573996051844476369e+02 4.744642789712795548e+02 9.768448623753809557e+01 -3.449703233038086836e+01 -5.237853387225395636e+02 -3.752375781961752182e+03 -5.741541375573047844e+03 -4.280163321601596181e+03 -3.696830875792603365e+03 -3.234641038411195041e+03 -2.508755217770178206e+03 -1.759446226417089292e+03 -1.050793393442472279e+03 -1.185759597751922456e+03 -9.874430281564704046e+02 -1.707984641124745849e+03 -3.417262284440118947e+03 -1.407958015925348263e+04 -1.387971047384370286e+04 -1.531776414866900268e+04 -1.727171412458946361e+04 -1.725485519453815141e+04 -1.722356611666913159e+04 -1.741700904959876425e+04 -1.763402615477400104e+04
-7.598070711733292228e+03 -7.622623779641461624e+03 -7.617637064605843989e+03 -7.618079768080777285e+03 -7.624648619841074833e+03 -7.626998897492239848e+03 -7.629009994982422540e+03 -7.632453800813469570e+03 -7.639407063754587398e+03 -7.648248204158307090e+03 -7.662947201590254735e+03 -7.671901533268870480e+03 -7.684083261564559507e+03 -7.709351974171042457e+03 -7.722015543156185231e+03 -7.724114029855818444e+03 -7.721398332368298725e+03 -7.676948381392617193e+03 -7.507713351653513200e+03 -7.057815602216382104e+03 -5.800824251584035665e+03 -5.279448972897841486e+03 -5.639198061551974206e+03 -6.380505427012315522e+03 -6.793279465026161233e+03 -7.120043708587611945e+03 -6.764914054835632669e+03 -6.023625600707920967e+03 -3.761542393188019560e+03 -2.578361693371772617e+03 -2.348255229775763837e+03 -2.191865401017634667e+03 -1.719466155744311664e+03 -1.635688313212206594e+03 -1.782176152665971358e+03 -2.218587130888100091e+03 -2.225905801650694684e+03 -2.519913415141968471e+03 -2.633013389391964665e+03 -2.860443191653105714e+03 -3.570030649853077648e+03 -4.404441635438489357e+03 -5.536983692450742637e+03 -6.453851016943189279e+03 -6.762626871040575679e+03 -6.589878924088942767e+03 -7.290896752452075816e+03 -7.531057077177229075e+03 -7.636651403977154587e+03 -7.922671070177073489e+03 -7.999511040808562029e+03 -8.024119703361973734e+03 -8.032757291069124221e+03 -7.968739165975919605e+03 -8.018701261882844847e+03 -8.124252588066074168e+03 -8.180459786147052000e+03 -8.167903733613026816e+03 -8.086094560827013083e+03 -8.014482750639381266e+03 -7.965973209272121494e+03 -7.846817700421292102e+03 -7.637078189627265601e+03 -7.016460297255952355e+03 -6.357955443136670510e+03 -5.476726011152399224e+03 -5.441807724351659090e+03 -4.556580788249088982e+03 -3.842141360904741305e+03 -2.340141026495531605e+03 -1.529529430404530331e+03 -3.636816082041829645e+01 -3.515434727575635776e+01 -8.580519362181915355e+00 2.394288294936481876e+00 3.696074069588775757e+01 4.911090097685479350e+01 7.287103454162399885e+01 7.203952461616508174e+01 1.199817280915488027e+02 1.609127619076112410e+02 2.083744974195418536e+02 3.197513807839984565e+02 6.390221713667015138e+02 8.115880018888097993e+02 1.106730810930273265e+03 1.210149480494106683e+03 1.299006392072684548e+03 1.395440703522967851e+03 1.385634023157993852e+03 9.364942480441076214e+02 5.096610031034574604e+02 1.450716358137715645e+02 4.139517849407155126e+01 -5.382046524024934797e+01 -2.014623857647767181e+03 -4.294493297723317482e+03 -5.485338836515622461e+03 -4.590482182836026368e+03 -3.980104302847655617e+03 -3.948599146650763032e+03 -3.874704277940558768e+03 -3.215692297102890279e+03 -1.731480590275313943e+03 -1.603493829933116558e+03 -1.079792606072049239e+03 -1.705099101084298582e+03 -5.947708341233341343e+03 -9.593072156567535785e+03 -1.384555132583740124e+04 -1.530630825888516119e+04 -1.707527365051544257e+04 -1.789916532127796017e+04 -1.745613228450729730e+04 -1.744901921599061825e+04
-7.669382588764604407e+03 -7.655349451106172637e+03 -7.648597159337468838e+03 -7.675153122925485150e+03 -7.678213404027781507e+03 -7.669530473649361738e+03 -7.648209294839186441e+03 -7.660893704073198023e+03 -7.664655257936827184e+03 -7.686037416899012896e+03 -7.696499002760218900e+03 -7.714790761293112155e+03 -7.774009350744451694e+03 -7.790035000085385036e+03 -7.779089682902121240e+03 -7.759109388408649465e+03 -7.770654259539466693e+03 -7.691783656530083135e+03 -7.340979868533149784e+03 -6.347619078041344437e+03 -4.402131632368857936e+03 -3.487142125650718299e+03 -3.371223331242033964e+03 -4.086687628760954794e+03 -5.057349655411936510e+03 -5.314541761135029446e+03 -5.305033285339947724e+03 -4.265733201496166657e+03 -3.064495349489205182e+03 -2.222256256147162730e+03 -1.673284075499502478e+03 -1.006447175286270522e+03 -1.067448424540651331e+03 -6.691444688240992491e+02 -8.144570371272531020e+02 -1.131662191672592598e+03 -1.002209009983455758e+03 -1.496155224111999814e+03 -1.847079141256668890e+03 -2.335863793398044436e+03 -2.458140568867906040e+03 -3.142808482293957240e+03 -4.085148760394134115e+03 -4.892196738357718459e+03 -4.673004321191235249e+03 -4.960165989476158757e+03 -5.295441818676633375e+03 -5.424968866634725600e+03 -6.378621552903677184e+03 -6.800574869564268738e+03 -7.664190896337729100e+03 -7.391938184225519763e+03 -7.943133869370563843e+03 -7.469749321308917388e+03 -7.178341434065156136e+03 -7.574249586694068967e+03 -7.988031684655464232e+03 -8.083014691117792609e+03 -7.931439283409481504e+03 -7.695778080552228857e+03 -7.371236874614295630e+03 -6.929498287911502302e+03 -6.335933674324119238e+03 -5.885946997247426225e+03 -4.322743145899350566e+03 -3.664184770553328690e+03 -2.767161916186443250e+03 -2.866238648060323158e+03 -2.468777677222213697e+03 -1.178358364126517699e+03 -2.342121873633689688e+02 7.923773539825902823e+00 2.301055282947811165e+01 3.386117670653212741e+01 4.121699133165472517e+01 6.164483915378085754e+01 7.071005049060730130e+01 9.651131305484102541e+01 1.172733404311086645e+02 1.374368963450908723e+02 1.706314342659273962e+02 2.221358558925439013e+02 2.731888653622063998e+02 4.347012309029528865e+02 5.979241840000785260e+02 7.957452571301884063e+02 9.037932266583438832e+02 1.029138723167064654e+03 1.237935011190455498e+03 1.310404598459211002e+03 9.819376305284981754e+02 6.404826155315585083e+02 5.019647388113509123e+02 7.017403703670899517e+01 -1.721358535356797503e+01 -4.675807409573471318e+02 -8.229160518055921330e+02 -5.421516140941213052e+03 -5.077998868938374471e+03 -4.159729403593022653e+03 -4.128696079590231420e+03 -4.205236024990810620e+03 -4.050226919001698661e+03 -3.801837101484132745e+03 -3.069167363986821783e+03 -2.164881175882323078e+03 -1.722758166231825044e+03 -2.079168419784104572e+03 -2.518439176529835095e+03 -5.420109089968227636e+03 -8.957766343430263078e+03 -1.525380788486469646e+04 -1.843682588524142193e+04 -1.809866897670632170e+04 -1.771560682446571445e+04
-7.838428770238811012e+03 -7.832395785530417015e+03 -7.798658166588109452e+03 -7.779647306603246761e+03 -7.758540585033500065e+03 -7.780217097566319353e+03 -7.781778383033030877e+03 -7.735250897384651580e+03 -7.755534541112172519e+03 -7.774175693066421445e+03 -7.814211889231348323e+03 -7.851296172885288797e+03 -7.866782931498292783e+03 -7.915224747036129884e+03 -7.962622197316490201e+03 -7.912663394659753976e+03 -7.870824672105154605e+03 -7.770799793423244409e+03 -6.941481351141099367e+03 -6.005190517752220330e+03 -3.056096610748747025e+03 -2.493800781119150088e+03 -2.371936851256653881e+03 -2.285549966409789249e+03 -2.618599237529810125e+03 -3.252941155280002477e+03 -3.968676639259474086e+03 -3.244478032258617986e+03 -1.963186047316250324e+03 -1.478820592777753745e+03 -1.010781328506076761e+03 -2.740972795330692406e+02 -2.142174185216097158e+02 -1.271000510631718896e+02 -1.636397749634414254e+02 -1.500222963295360046e+02 -1.564299504195899431e+02 -1.822078646073048844e+02 -2.214143313723037636e+02 -9.144182834064972667e+02 -9.872045329246142273e+02 -1.700193013668019603e+03 -2.519662465900339612e+03 -2.814501131421639911e+03 -2.995633166625334070e+03 -3.289886403090471958e+03 -3.929320732980817411e+03 -3.440735115148423120e+03 -3.697330528452622730e+03 -5.455664026194504913e+03 -5.645384809392316129e+03 -5.932504296392049582e+03 -6.829383145416970365e+03 -6.814012585071027388e+03 -6.243193252406383181e+03 -6.015671834739046062e+03 -6.648810132358436022e+03 -7.265711293258727892e+03 -7.503668377568312280e+03 -6.761784280701640455e+03 -6.362034494647714382e+03 -5.592119921417865044e+03 -4.207442771168243780e+03 -3.535978668992212533e+03 -3.327560159108119024e+03 -2.626018619118715378e+03 -1.949455232114162072e+03 -1.120523105233739898e+03 -6.670843211400052724e+02 -2.182069124554570010e+02 3.001286987861218591e+01 4.589127851774937028e+01 3.647981206906607810e+01 5.534313528202811483e+01 6.755305542063305779e+01 7.344065158252280412e+01 8.449237357514367375e+01 1.142245739508762767e+02 1.513238072316305818e+02 1.703416458982296717e+02 1.922390722650548014e+02 2.499808341642807079e+02 2.827821309089946453e+02 3.209545763296799805e+02 3.545542788251304387e+02 4.285388314693438474e+02 5.519389652982181360e+02 6.454933983516432363e+02 8.587345503783468530e+02 1.123721014356638761e+03 1.126207693562195800e+03 7.909009371125928283e+02 5.244478030274299272e+02 1.258216236896291917e+02 1.587838910785511182e+01 -1.694853532507146667e+02 -7.428810938420201637e+02 -3.933672910194774431e+03 -5.548249744393030596e+03 -4.660645954500554581e+03 -4.378339376116249696e+03 -4.395314233074683216e+03 -4.536224440216949006e+03 -4.680254930669047098e+03 -4.343555875475093671e+03 -2.893565120339796977e+03 -2.713358104466887198e+03 -2.079649547888547204e+03 -1.911457606049759534e+03 -2.158891650795431815e+03 -6.542648377460497613e+03 -8.720576968338469669e+03 -1.750259596547825277e+04 -1.824161505058597322e+04 -1.806210736169539086e+04
-8.058059555837267908e+03 -7.984269461916552245e+03 -7.995576224447152526e+03 -7.947430212175644556e+03 -7.969260412038517643e+03 -7.970979225091216904e+03 -7.861784384658019007e+03 -7.949245986798379818e+03 -7.920446672805818707e+03 -7.981387463748161281e+03 -7.946753624935162406e+03 -8.016398125515645916e+03 -8.072886469198761006e+03 -8.141375805313261480e+03 -8.134135784044862703e+03 -8.106166262014322456e+03 -8.031144941817870858e+03 -7.826069065523360223e+03 -7.125080771563299095e+03 -5.273040669313369108e+03 -3.233776384387758753e+03 -2.253026959061329308e+03 -2.154477335716854213e+03 -2.144561423785730767e+03 -2.180887632819173177e+03 -2.129434473261442690e+03 -2.495350784510946141e+03 -2.351334434367095582e+03 -1.620874826873199936e+03 -7.266484191441476241e+02 -1.139852064232674564e+02 -6.185356312888691122e+01 -1.835978794286577553e+01 -1.053176044623327101e+01 -9.957523434743961843e+00 -5.115344632275570547e+01 -7.584360189306732991e+01 -8.890280887039173763e+01 -1.192626013940468255e+02 -8.289011792509005261e+01 -1.267535006440735970e+02 -5.705559829353449004e+02 -1.056576912244370305e+03 -9.895531341593268735e+02 -1.267616515867775433e+03 -2.334343893377695622e+03 -2.261162004300548688e+03 -1.694756411986553530e+03 -2.093045318438163122e+03 -3.561787362480581123e+03 -3.982664677435116118e+03 -4.673321862951177536e+03 -4.117560903695638444e+03 -4.573452126565292929e+03 -3.774250727350079615e+03 -4.252078592992764243e+03 -4.579022729812797479e+03 -5.866462190036074389e+03 -5.455091027732382827e+03 -5.227770114635514801e+03 -4.072134446911526993e+03 -3.511026096369928382e+03 -3.396024755567671946e+03 -2.496052136392301236e+03 -2.281315795139036254e+03 -1.989657296260554403e+03 -1.405110968354995748e+03 -3.562867541224212573e+02 1.927186274091952356e+01 2.774441903056836267e+01 3.363829469672294437e+01 8.112219291114135444e+01 9.701252714516542142e+01 9.241761336961090478e+01 9.279496413381222908e+01 1.013661758420034573e+02 1.032058358042696824e+02 1.228729127851409828e+02 1.483233010745911145e+02 1.736968888095664738e+02 2.009196341518072586e+02 2.330056631886626803e+02 2.844296592715596148e+02 2.954295063017969483e+02 3.262982366129658658e+02 3.757197402637481787e+02 4.206729283991988950e+02 4.995651391116037985e+02 6.437509927924542126e+02 8.917086890439892386e+02 9.906225180582401890e+02 8.678402207420438117e+02 7.660008661135011607e+02 4.080162042942436642e+02 8.081033840608019148e+01 -1.711565102216201595e+01 -4.410875155442521844e+01 -2.186671617051868907e+03 -4.163551910236472395e+03 -5.105862476097124272e+03 -4.436955366200674689e+03 -4.261352135310064114e+03 -4.633598715117042047e+03 -5.019695275748844324e+03 -5.294828215891402579e+03 -4.979679685092460204e+03 -4.909056474606170923e+03 -3.118346533566736980e+03 -2.030502691359267146e+03 -1.951080818280893482e+03 -3.064797182155295104e+03 -3.444141589104458035e+03 -1.305977073626850870e+04 -1.660998495622499468e+04 -1.927451516548725340e+04
-8.217440810627980682e+03 -8.216719892902234278e+03 -8.237759436962800464e+03 -8.182559541659274146e+03 -8.182208657909585781e+03 -8.199288209351223486e+03 -8.165127559699481935e+03 -8.092465567694689526e+03 -8.167933024122089591e+03 -8.185619675576087502e+03 -8.208166723413542059e+03 -8.254637013703284538e+03 -8.300300481893966207e+03 -8.350376418783009285e+03 -8.384635614679482387e+03 -8.258541700444340677e+03 -8.214325948381236230e+03 -8.096436651644843550e+03 -7.368691613182991205e+03 -5.831334026542452193e+03 -3.694022524885539951e+03 -2.883538320473957356e+03 -3.079802034343629202e+03 -2.943929281375939809e+03 -2.596468974778628763e+03 -2.197838941848227932e+03 -2.058700743598963527e+03 -2.087805735093259500e+03 -1.400755031491583850e+03 -4.104598587917163286e+02 -9.247876186180840818e+01 -2.660059311759225409e+01 1.219466479086190525e+01 3.623931097602476115e+01 4.802324233222042693e+01 3.443330964426964158e+01 2.323758745798635417e+01 -2.823359455375691951e+01 -1.991500544314677157e+01 -5.797253836016680317e+00 -5.409542655035413361e+01 -1.062485351448545998e+02 -3.030131998229965689e+02 -1.094014849647326173e+02 -9.800177615788140884e+01 -5.130279252497114157e+02 -6.945146298256942146e+02 -4.588239297922206106e+02 -5.599379209649525819e+02 -1.490595593837618935e+03 -1.539036121006001849e+03 -2.578036024258458383e+03 -1.895760249876921762e+03 -1.108431220427941753e+03 -2.208354569270552929e+03 -3.045439441448795606e+03 -2.852273519476869296e+03 -3.211736214290105636e+03 -3.437722730133567893e+03 -3.264651338796261825e+03 -2.982226555130240740e+03 -2.720546389339383495e+03 -2.393723671513426780e+03 -2.307753407952863199e+03 -2.295538909527569103e+03 -1.577207849412517362e+03 -6.128832985470335188e+02 2.868648708173825312e+01 4.036834113411354252e+01 4.553113861371620885e+01 8.385880098757453993e+01 1.158679621476233592e+02 1.306912133204397435e+02 1.217378953192625488e+02 1.324349335192163721e+02 1.338676507262493374e+02 1.280561708490590149e+02 1.359097513959948458e+02 1.608298400681725013e+02 1.846801271533234967e+02 2.149594178264356970e+02 2.444602600560050121e+02 2.772450680220704271e+02 3.005885244162326444e+02 3.320467250988956494e+02 3.740143544800689028e+02 3.906409864579052282e+02 4.172870767319022320e+02 4.919389148203230775e+02 5.674371917126723019e+02 7.660418981736229398e+02 8.992287131493782226e+02 7.029133962738228547e+02 4.249793616150667503e+02 1.190631117186125891e+02 9.074608998412881533e+01 1.728851574275385161e+01 -6.031949361605929880e+02 -1.940473153103502455e+03 -4.150332785792408686e+03 -4.365356018245986888e+03 -4.081354470023739850e+03 -4.351857297634822316e+03 -5.007358230869356703e+03 -5.377415564410330262e+03 -5.755208358339770712e+03 -5.850570540670434639e+03 -4.948886803144818259e+03 -3.491814197919936305e+03 -2.526095909328855669e+03 -2.358161021451936449e+03 -2.731819585653765444e+03 -7.308213451528823498e+03 -1.033223662439195505e+04 -1.605868805810820049e+04
-8.397822542399264421e+03 -8.387769943909190260e+03 -8.378912194375465333e+03 -8.403533561635367732e+03 -8.386311958076028532e+03 -8.340493417508427228e+03 -8.297276319486920329e+03 -8.352306192568303231e+03 -8.399038655882335661e+03 -8.386066409157128874e+03 -8.388743483869437114e+03 -8.417513187105498218e+03 -8.461803278891142327e+03 -8.483370487492071334e+03 -8.488222632402650561e+03 -8.423054236783778833e+03 -8.369722744997059635e+03 -8.230056823212027666e+03 -7.873786023817015121e+03 -6.961703962947114633e+03 -5.414944170817640043e+03 -4.457601577774109501e+03 -4.801447693499426350e+03 -4.864138686999898709e+03 -3.211609069806218486e+03 -3.033310238059836593e+03 -2.648260928022702501e+03 -2.263918789125920739e+03 -1.510184180615048945e+03 -1.732805335317084428e+02 -6.868678535641377891e+01 -4.009510034081087415e-01 1.794479550577289118e+01 8.962932243916482378e+01 9.763233213121846177e+01 6.420855151466145117e+01 4.539465755407926650e+01 3.256960210669360123e+01 2.474769331539239658e+01 3.482889164853423836e+01 1.065853572425578211e+00 -3.524129706572324494e+01 1.415153313586228201e+01 1.388788723887587828e+01 -2.048044190126802633e+01 -2.751749898007458839e+01 -3.104541642277383673e+01 -5.813977686035793369e+01 -1.323653252972905818e+02 -4.854984464958102990e+02 -4.507033500686088132e+02 -5.964404635866403623e+02 -2.199027023259375540e+02 -5.084792750097713565e+02 -9.731946823265329840e+02 -2.021940276042177175e+03 -2.575104792695834021e+03 -2.590301444921294660e+03 -2.694788999601087198e+03 -2.767478501861544373e+03 -2.425688008818110575e+03 -1.910538482366971266e+03 -1.659985245349865863e+03 -1.642143842511060257e+03 -1.801042373391579304e+03 -1.201347594095346722e+03 -2.890650967518942593e+02 3.127439246074153445e+01 5.233530102592977329e+01 6.293914991827947603e+01 1.056879122477645865e+02 1.387675954424112774e+02 1.947523851381677105e+02 1.563156028317169159e+02 1.453586075569450031e+02 1.452404616192841331e+02 1.461937542389258624e+02 1.566256124899973656e+02 1.682576800872124068e+02 1.900345766279061195e+02 2.095873179438629847e+02 2.519264707700406234e+02 2.729423915899569693e+02 2.955832586486703235e+02 3.042907453423177344e+02 3.298790583163410588e+02 3.831637620588357436e+02 4.059871490966031047e+02 4.205900421509356306e+02 4.926704908974154478e+02 6.187632325415847845e+02 8.984831559989220295e+02 8.869719662336535748e+02 7.948845127309735972e+02 2.971430962542146972e+02 1.044332010429573216e+02 7.058897201225929052e+01 6.028622047321351651e+00 -7.134819039633239299e+02 -3.636312109143193993e+03 -4.701293973079845273e+03 -4.143201553349555979e+03 -4.210719766322867144e+03 -4.648605151453834878e+03 -5.137594578541687952e+03 -5.496768557470236374e+03 -5.715798143168681236e+03 -5.930532230960246125e+03 -5.424849364248025267e+03 -3.940872008733590064e+03 -3.479588159481751063e+03 -3.005783740190059689e+03 -4.146390404282858981e+03 -5.536579245465860367e+03 -1.014253809780408119e+04
-8.443026851845679630e+03 -8.451226750376297787e+03 -8.453424180374804564e+03 -8.447417979695288523e+03 -8.462489202126402233e+03 -8.451996754838526613e+03 -8.442661803897817663e+03 -8.448457026425756339e+03 -8.455227281785402738e+03 -8.473212831404787721e+03 -8.473459240106563811e+03 -8.486089085262174194e+03 -8.495431824507617421e+03 -8.511886247117079620e+03 -8.510382685542328545e+03 -8.516403588528153705e+03 -8.469865862128925073e+03 -8.398712955611192228e+03 -8.295957978444934270e+03 -7.640453435203025037e+03 -7.174531444886997633e+03 -7.027247945325183537e+03 -6.918975760773542788e+03 -6.941151440996715792e+03 -6.193842801673838949e+03 -4.092538558670520160e+03 -4.263586915460750788e+03 -2.291903310634753780e+03 -9.825408573080773067e+02 -1.447604896465066702e+02 -5.087061459239201611e+01 9.978752897047915127e+00 3.528174890962306165e+01 1.252721865529281615e+02 1.539260655103367696e+02 1.104237378579518492e+02 7.543908498012244479e+01 7.418679737161752996e+01 5.439694456336322048e+01 4.488710530733922610e+01 4.470582711947780297e+01 4.186509600503529072e+01 3.642030555813455095e+01 3.008195188458053693e+01 1.772975555491591848e+01 6.834432738334689006e+00 7.817798481167325342e+00 -1.683377109834929186e+01 -5.626536872927866284e+01 -8.902481477597012827e+01 -1.140436302464939899e+02 -1.734100664396456466e+02 -1.821812594072744957e+02 -2.158661817469675270e+02 -4.215990923669165227e+02 -4.380888322576427640e+02 -1.240418907995421705e+03 -1.589868863242877978e+03 -2.085678889364075985e+03 -2.381336666328453248e+03 -1.896373560189233785e+03 -1.263882041618510129e+03 -8.182687036209644020e+02 -8.248474549328999501e+02 -3.863420702584630249e+02 -2.195804838851765339e+02 1.721903540742178507e+01 3.710145187968947766e+01 7.069042733977246940e+01 8.546730558115820031e+01 1.448653316309213892e+02 2.365820313040791234e+02 2.671988531020953133e+02 2.037026694785814982e+02 1.786517699775285450e+02 1.734417208608797694e+02 1.646336744006773642e+02 1.668457654783823045e+02 1.760528688375432296e+02 1.948699033443248254e+02 2.099696560765108018e+02 2.381374174636274290e+02 2.617393816892616201e+02 2.902139766147614068e+02 3.035495681704636581e+02 3.129234799284026849e+02 3.505034384354035524e+02 3.901710086525924908e+02 3.982007308521057780e+02 4.577874787483435739e+02 5.013323857161324781e+02 7.053391748356704056e+02 9.620814738615475790e+02 9.828485259982912794e+02 7.889661831889928862e+02 3.959863308706824796e+02 1.749344273641277994e+02 6.005000124933599892e+01 -3.670098353911714639e+01 -2.331848696611250034e+03 -4.244290049422425909e+03 -4.644715420661928874e+03 -4.568015403308459099e+03 -4.561946664473643978e+03 -4.776814170304893196e+03 -5.424393127852627003e+03 -5.692797244003371816e+03 -6.380575496547632611e+03 -6.895400679653705083e+03 -6.356623157296860882e+03 -5.613525524912923174e+03 -4.973419555937844962e+03 -4.417655156088153490e+03 -4.409272624376499152e+03 -5.082165844598070180e+03
-8.470639705214593050e+03 -8.471150209192464899e+03 -8.476193893108276825e+03 -8.476702381045013681e+03 -8.479439402854221044e+03 -8.484012929257278302e+03 -8.486748738325200975e+03 -8.487016081619487522e+03 -8.483301931407429947e+03 -8.493694423411005118e+03 -8.504571898390679053e+03 -8.509959134637116222e+03 -8.519626916967839861e+03 -8.524280449996100288e+03 -8.531935411535290768e+03 -8.538055738637927789e+03 -8.541136434063966590e+03 -8.536483925636037384e+03 -8.497015155175331529e+03 -8.203064751998439533e+03 -8.131124266890483341e+03 -8.015086509937889787e+03 -8.106733449816007123e+03 -8.050645856507347162e+03 -7.635724690824333265e+03 -7.505669502026506962e+03 -3.708873182523579089e+03 -8.363869424374688606e+02 -1.890739227675918812e+02 -1.044430555532220524e+02 -2.993248813301718059e+01 1.846967350876711578e+01 4.278195422730241404e+01 8.524944941675028076e+01 1.648679775135970260e+02 1.707569769274810199e+02 1.096310160273283287e+02 1.066227085712412617e+02 1.003945727098789718e+02 6.433014933523611489e+01 6.253650790303557017e+01 7.271661269311113074e+01 4.616007914524393385e+01 5.905396597726504382e+01 4.467246837371516932e+01 3.162778279181781826e+01 3.396145626302426024e+01 1.685383999048689319e+01 -9.221317208703966983e+00 -3.349885862022742344e+01 -6.869707741430642045e+01 -7.210186202428215552e+01 -1.047918743035048124e+02 -1.556620758029391993e+02 -1.929016530054429666e+02 -2.297555718653124472e+02 -6.666476884653289972e+02 -7.252636529813588595e+02 -1.031921170475013923e+03 -9.709482444983641471e+02 -8.847274502518074542e+02 -5.776080023429321955e+02 -1.776706890008959761e+02 -1.080798173105339117e+02 -5.042672899724382063e+01 5.008177614332616656e+00 3.422119144311989203e+01 5.849790474424441555e+01 7.806840208996862884e+01 1.094569784271730981e+02 2.385091822296852797e+02 3.389948013198467152e+02 3.404294188155854499e+02 2.363787717428581345e+02 1.975752870568295236e+02 1.946251903663300027e+02 1.860281658107543876e+02 1.815857665982917410e+02 1.813135368567364765e+02 1.947764309299193144e+02 2.119873921850121690e+02 2.261481888662749782e+02 2.502274208902719579e+02 2.691137128731923553e+02 2.826929087932476250e+02 3.024750717275199463e+02 3.217581915709863551e+02 3.607523549598575983e+02 3.866547690141209159e+02 4.283463812920093119e+02 4.634881906240149192e+02 5.992121612542632647e+02 7.313733958410065270e+02 9.940290659599326091e+02 1.034003617044463226e+03 7.236498258838192896e+02 1.852503603046842215e+02 8.057275407721586191e+01 2.902753792007540667e+01 -6.459053528487448403e+00 -2.409339483185619883e+03 -4.905599640578245271e+03 -4.772763770198530437e+03 -4.611977620763184859e+03 -4.624783370128535353e+03 -4.899546755020836827e+03 -5.468182156441121151e+03 -6.147556977192641170e+03 -7.269987966937468627e+03 -7.685592508186591658e+03 -7.209660587252828918e+03 -6.833871725293569398e+03 -6.177530430054958742e+03 -5.486613359106259850e+03 -5.993177983063195825e+03
-8.490771240375888738e+03 -8.490807411900686930e+03 -8.488109646312728728e+03 -8.493806132133655410e+03 -8.496799319863861456e+03 -8.497148889253148809e+03 -8.499910218608303694e+03 -8.502232350102338387e+03 -8.505532926507570664e+03 -8.513892808973212595e+03 -8.517382585429335450e+03 -8.522293125293803314e+03 -8.528887207255240355e+03 -8.533896010540383941e+03 -8.542261034011764423e+03 -8.545041030075388335e+03 -8.549048573532440059e+03 -8.550729127758460891e+03 -8.533824377998975251e+03 -8.523829808006910753e+03 -8.471768472058005500e+03 -8.421070595247581878e+03 -8.406289412683641785e+03 -8.419956939075307673e+03 -8.789157167732957532e+03 -7.608460271823766561e+03 -3.531616050257983716e+03 -4.804667640657050924e+02 -1.221070072113794538e+02 -1.209120073960952446e+01 1.778204176721795804e+01 3.656715814415888133e+01 5.115655717216345266e+01 8.517355671292175145e+01 2.058731005361281632e+02 2.207755006751308429e+02 1.687804310351633035e+02 1.777186860073318826e+02 1.329463578868478066e+02 1.345725690972395512e+02 1.794785613194634095e+02 1.561165204791597034e+02 9.207394418836986461e+01 8.740077796934865262e+01 6.758369048284009750e+01 4.042214527362916954e+01 3.720622172753701307e+01 2.910604120631533931e+01 6.256060931926271884e+00 -5.886040848443536255e+00 -1.310879183244818158e+01 -2.277057817766700154e+01 -5.033197322749926883e+01 -7.960068380253028408e+01 -1.002252303901748860e+02 -1.318331282116243415e+02 -1.609073078524237985e+02 -2.724795299684211614e+02 -1.651573788804921037e+02 -1.720255844994785548e+02 -1.233454205605152083e+02 -6.195663322760397307e+01 -7.656812114164716832e+01 -3.448301391064823473e+00 -1.285339036846631755e+00 2.999612420965907589e+01 5.205194778758232843e+01 6.349149039471816280e+01 9.181101162891935985e+01 1.676231623050834401e+02 2.517405593459803868e+02 4.206560404970959439e+02 4.408407957903734768e+02 2.954808988525242626e+02 2.482072157769901253e+02 2.098588338194480798e+02 1.985397463520194492e+02 1.931295241160054559e+02 1.929999211451313670e+02 1.991991984217309266e+02 2.102554014254280048e+02 2.225751015138390585e+02 2.408370658565657720e+02 2.590139727011975310e+02 2.697062348225961159e+02 2.861518287443396389e+02 3.058531771053949910e+02 3.386308992494505787e+02 3.696585036273003766e+02 4.065930797864008355e+02 4.350977899346563618e+02 4.421729273174764216e+02 6.624463427496554004e+02 8.389143716199989740e+02 1.103408624102261456e+03 8.974648703203575906e+02 4.512655006105067628e+02 2.493523616693184692e+02 8.301967086839451326e+01 4.779316344019660079e+01 -1.201139896345352327e+03 -4.770682828409612739e+03 -4.835545387131966891e+03 -4.843241505011068512e+03 -4.539645082570037630e+03 -4.710027610538520094e+03 -5.111491218048585324e+03 -6.089642619333472794e+03 -6.982928398037967781e+03 -7.679210970259619899e+03 -8.123053251228960107e+03 -8.118166481163551907e+03 -7.962343353418127663e+03 -8.116160813405011140e+03 -8.011433728104687361e+03
-8.504189417234405482e+03 -8.502544095877385189e+03 -8.505325462493508894e+03 -8.514664353887732432e+03 -8.513948040344090259e+03 -8.518297875393558570e+03 -8.521590360307072842e+03 -8.522162339691210946e+03 -8.523965735938041689e+03 -8.526743271524203010e+03 -8.531621911586194983e+03 -8.540274708570670555e+03 -8.548109327538766593e+03 -8.549024239218626462e+03 -8.552482838362217080e+03 -8.558181775948500217e+03 -8.561201488492613862e+03 -8.560705914843141727e+03 -8.557621680355125136e+03 -8.531263494566028385e+03 -8.511026520163233727e+03 -8.477805249508308407e+03 -8.515891875181559953e+03 -8.667494374262611018e+03 -9.243078492157690562e+03 -8.658533619606016146e+03 -4.001338958601239028e+03 -1.506044733885225924e+02 -7.593939686511059506e+01 -4.442575838297104340e+00 2.262100283291903935e+01 4.824064909849018790e+01 6.208763632687211498e+01 8.643587822507531371e+01 1.449816885317393655e+02 2.189639235623112654e+02 2.206823131957383737e+02 2.225784442568667600e+02 1.964842684742201868e+02 2.384003308586013929e+02 3.210631354199547900e+02 2.840491627162765553e+02 1.306506312407401253e+02 1.470735972353162140e+02 9.457703648552167408e+01 4.890953485776274334e+01 4.974880018497083256e+01 3.445925868836603456e+01 2.588311117996811817e+01 1.114837273666248407e+01 -2.384693275104599053e+00 -4.876933202261135136e+00 -2.185056602404497994e+01 -4.048689443682427225e+01 -5.709086883909001386e+01 -6.874504569653618091e+01 -6.157907533461451521e+01 -7.513566266309123876e+01 -9.361549298774622230e+01 -8.343754795000469926e+01 -2.096921449940322901e+01 -1.196803035757865352e+01 5.378512564662105255e+00 1.997333444182757489e+01 2.751297937361922052e+01 3.803694940502006716e+01 6.257910376466555391e+01 7.686428409548113905e+01 1.279516433790339391e+02 1.825734028118482684e+02 2.799667931142467978e+02 3.870838265227309307e+02 4.628468472864082628e+02 3.649731739231207825e+02 2.637568988187950936e+02 2.232805967704769330e+02 2.097340846249811648e+02 2.050438911784818572e+02 2.010238489535829558e+02 2.033186297459243406e+02 2.102230304059654600e+02 2.213308817190821571e+02 2.420472576552745068e+02 2.500334927916217680e+02 2.626563540850355025e+02 2.737840689962175702e+02 2.923217550524792614e+02 3.177358406376127959e+02 3.472013812655673632e+02 3.737196747237934460e+02 4.117954048117261436e+02 4.267427608890313309e+02 5.279844400660113024e+02 6.401879150031415975e+02 9.133885995651673966e+02 1.069762614648785075e+03 7.586404286104594803e+02 4.228778139040157953e+02 2.446345959604149698e+02 4.352143937172601795e+01 -8.959622497106897399e+00 -2.847037188470194451e+03 -4.386029304536925338e+03 -5.252946185132901519e+03 -4.861101716849406330e+03 -4.705831659977412528e+03 -4.861655820117967778e+03 -5.643848344782245476e+03 -6.441226186476316798e+03 -7.414511605635798333e+03 -8.003952029005688928e+03 -8.488012147433591963e+03 -8.771573430128551990e+03 -8.811039541042247947e+03 -9.121076348766546289e+03
-8.518377426976423521e+03 -8.523962335388399879e+03 -8.531126734567511448e+03 -8.529218865445596748e+03 -8.533172039337576280e+03 -8.530585784811846679e+03 -8.539170110987037333e+03 -8.539038615584868239e+03 -8.538921386848855036e+03 -8.544877679677085325e+03 -8.549873466999988523e+03 -8.558755715613162465e+03 -8.557799958494253588e+03 -8.561771299537389496e+03 -8.565528481331095463e+03 -8.571497829024601742e+03 -8.568773456830418581e+03 -8.570383543682597519e+03 -8.561725225865371613e+03 -8.541787919933596640e+03 -8.511075378180008556e+03 -8.492208673706498303e+03 -8.610095864839493515e+03 -8.923924537579514435e+03 -9.528257250528322402e+03 -8.214896993622092850e+03 -3.235643200560907644e+03 -1.413610428650753192e+02 -4.396123833564718097e+01 8.234892607674087373e+00 4.259819719943715199e+01 5.592341905809993818e+01 7.740201536820090666e+01 9.329499872509315139e+01 1.231190070835579746e+02 1.728483418760046391e+02 2.400944082047609243e+02 2.974084117511380327e+02 2.972826750996804321e+02 3.198993980040057181e+02 4.187155231086380809e+02 3.000878682286561343e+02 2.282979995787308098e+02 2.300378502401049730e+02 1.236855383955515464e+02 1.052066562831949881e+02 8.280275433492812454e+01 6.599567361505401664e+01 5.674430104717409051e+01 3.157437151410995924e+01 2.215575841351194697e+01 2.488091889442509341e+01 5.580803677979892186e+00 -6.988071021448290843e+00 -1.801329992389045387e+01 -2.731008526487353549e+01 -3.746310143125107572e+01 -3.721341376371171350e+01 -3.114451438574247177e+01 -2.356837806751073572e+01 -7.356574909175548349e+00 1.785609357968620259e+01 1.900571193521107816e+01 2.643343111799282497e+01 3.636215711384712534e+01 5.447678505093534085e+01 7.322688305765518635e+01 8.111663503944905074e+01 1.027532417404032117e+02 1.617469328753053617e+02 2.478587695962546320e+02 3.476601164665802912e+02 4.318995414452195405e+02 3.553468196314670422e+02 2.479296372876578403e+02 2.336179529204845835e+02 2.155774158596895802e+02 2.117287238186561069e+02 2.039161658060320690e+02 2.058280127942118725e+02 2.123893104824885825e+02 2.189489903540399212e+02 2.293906960607155838e+02 2.434809531897445254e+02 2.557569067690188263e+02 2.655784760782544822e+02 2.810341779212566848e+02 3.118881170523487754e+02 3.356764416186914559e+02 3.702612484118371867e+02 3.938517133484938881e+02 4.263067025356937165e+02 4.575173004019050040e+02 5.164597704656246151e+02 7.924478713004649535e+02 1.081415821547720725e+03 1.050134268568552216e+03 8.508486418860038611e+02 6.132394258191783365e+02 1.934737252473205444e+02 2.043717050896532683e+01 -1.158464568880396826e+02 -2.741102549940684980e+02 -5.021987263792313570e+03 -5.137643129204166144e+03 -4.731638094113674015e+03 -4.848997872457485755e+03 -5.229466044483508085e+03 -6.033285996406186314e+03 -6.791991294147353074e+03 -7.908567415925444038e+03 -8.502326346604319042e+03 -8.814330174359625744e+03 -9.119698968341319414e+03 -9.513677598484431655e+03
-8.530159864143901359e+03 -8.540328668105077668e+03 -8.541927567063381503e+03 -8.543514886875902448e+03 -8.545692637180902238e+03 -8.555159482178398321e+03 -8.552598680086150125e+03 -8.550853177952096303e+03 -8.561448840443888912e+03 -8.561088840179276303e+03 -8.562891403418923801e+03 -8.568127973939743242e+03 -8.573813682960037113e+03 -8.579671564780825065e+03 -8.579826501118632223e+03 -8.581852909107303276e+03 -8.582778557030718730e+03 -8.577636327162736052e+03 -8.574523407187949488e+03 -8.552805835363289589e+03 -8.525831356127006075e+03 -8.535601144873557132e+03 -8.706172484563234320e+03 -9.035394470322367852e+03 -9.629585801920557060e+03 -3.552445786949405829e+03 -7.704218027245465237e+02 -1.099881640091947759e+02 -2.069712479376985215e+01 1.787559663333163229e+01 4.122398491385344244e+01 6.145489475111111233e+01 8.998572408580203330e+01 1.328541329738912111e+02 1.586415530628638066e+02 1.871763502182394632e+02 2.176645587516172213e+02 2.776801278361311347e+02 3.767550478209410585e+02 4.857421900115519406e+02 5.393667393259797791e+02 4.644205441556508163e+02 2.788978866724243062e+02 1.956545592037698498e+02 1.866086829340812301e+02 1.505593985991507680e+02 9.729906037655196371e+01 9.153233210324250990e+01 7.678738232977985945e+01 5.379161528076749477e+01 4.158835153800590234e+01 3.474062811164368014e+01 3.190404816697031265e+01 1.371874380942235661e+01 -1.560691287508339187e+00 -1.111936864955738358e+01 -1.503700015771791776e+01 -1.785039495831257028e+01 -1.840051270818194240e+01 -6.515527531212858214e+00 1.293725462782577296e+01 2.322229591914468116e+01 3.385619292497127475e+01 4.650633882305020705e+01 4.945777697880143364e+01 5.950833363760882833e+01 7.570206923267370769e+01 9.469443125324191612e+01 1.292296755973151221e+02 1.430865710310203838e+02 1.780717488032672406e+02 2.807310385951515741e+02 3.438706114214070908e+02 2.956631278232087539e+02 2.479591329403960174e+02 2.294095864860287861e+02 2.178836981124496504e+02 2.078502825645726091e+02 2.040446687956534220e+02 2.043492841223693972e+02 2.099967856601578546e+02 2.197866786007713813e+02 2.272063863573179674e+02 2.345849207523019686e+02 2.531628417501105446e+02 2.611784726747284253e+02 2.779394977409457397e+02 3.059799994829591583e+02 3.164964688726234954e+02 3.342010447022908011e+02 3.607214803727632102e+02 4.060804383975055885e+02 4.336308690107825896e+02 4.649152203612667336e+02 5.849980744372840036e+02 1.004761132710580682e+03 1.196992623033701420e+03 8.452705248179673845e+02 4.632113518234316984e+02 1.552755398177225175e+02 9.172395283106855857e+01 4.395712519610406588e+01 -1.961630938825032047e+02 -3.374595368397091079e+03 -5.254036186093106153e+03 -4.640719211204434032e+03 -4.555822755589007102e+03 -5.027671019343150874e+03 -5.467938157805698211e+03 -6.208178785754629644e+03 -7.280893938384928333e+03 -8.105783794071808188e+03 -8.590808862118152319e+03 -8.864000124549913380e+03 -9.168222699488234866e+03
-8.547833313487672058e+03 -8.552521488482974746e+03 -8.561268047210798613e+03 -8.562369254168010229e+03 -8.558614800117762570e+03 -8.565506995062160058e+03 -8.568246121694994144e+03 -8.575363314336142139e+03 -8.576991900197022915e+03 -8.578152052942088631e+03 -8.579837052762863095e+03 -8.587717047170830483e+03 -8.593447866113046985e+03 -8.590246651722496608e+03 -8.597964646275087944e+03 -8.596706698886129743e+03 -8.594480601194472911e+03 -8.589205886630837995e+03 -8.580395985628656490e+03 -8.563749119351430636e+03 -8.542597817639112691e+03 -8.592976101301363087e+03 -8.805007521729527070e+03 -8.760441852379737611e+03 -6.329772975261327701e+03 -8.068833364588035693e+02 -3.010550342946091291e+02 -1.065340823535422032e+02 -1.291727465235393524e+01 3.933503402368827295e+01 4.620565735836770926e+01 7.901953641579494558e+01 1.238534482510400352e+02 1.507768510873122523e+02 1.750102956115091786e+02 1.982089175910867880e+02 2.033845307303391792e+02 2.627625416598079369e+02 3.422823325804466776e+02 4.792791480611232942e+02 5.764267483479359271e+02 5.033530287144290583e+02 3.377215836961659079e+02 3.287233579531994110e+02 3.112455017018801300e+02 1.729478473223539652e+02 1.171189980481178026e+02 1.165715632208928128e+02 1.000119912462860157e+02 8.532054674062837307e+01 5.675240836866388605e+01 4.909983809866810134e+01 4.558741480625070608e+01 3.542941834164727055e+01 1.411481259186045101e+01 3.975467256153585982e+00 6.917085076040511815e+00 5.848820519060669909e+00 -1.911451075722613524e+00 1.749337755068570388e+01 3.158473977874842475e+01 2.561629360574357150e+01 3.753342508391601484e+01 4.995073412507142763e+01 5.571765792072307022e+01 7.097118027462917667e+01 8.162963727883168019e+01 1.028824660055629181e+02 1.243583729932388167e+02 1.403679522882401614e+02 1.602096999958003778e+02 2.003982625426170046e+02 2.444536676557277417e+02 2.294238249020837657e+02 2.313400211204189816e+02 2.210984581420907205e+02 2.192109311413135231e+02 2.027291834506262944e+02 2.021694556622236973e+02 2.040549230903878026e+02 2.091633501118862455e+02 2.139738108388038995e+02 2.232110976645935807e+02 2.305149531805904815e+02 2.436758612031599398e+02 2.585164926636913947e+02 2.768592850794603919e+02 2.901685756038241379e+02 3.021286297629459341e+02 3.230305457414643797e+02 3.488045669364969399e+02 3.674964022829218493e+02 4.038916378007154435e+02 4.309278169058613344e+02 6.186154464673210214e+02 8.916217487062227747e+02 1.150919930173207376e+03 9.757309549067734906e+02 7.831882469981483155e+02 4.174749923861700722e+02 1.027223215505211016e+02 8.886482911070071111e+01 -9.027020082689153924e+01 -1.937257614159794457e+03 -4.848398779772171110e+03 -4.829624730639574409e+03 -4.424482951029944161e+03 -4.778162948599656374e+03 -5.310093107814675932e+03 -5.720095847522004078e+03 -6.722892944599294424e+03 -7.594144806466544651e+03 -8.507643061101960484e+03 -8.686846292311116486e+03 -9.141748494030893198e+03
-8.559777784230769612e+03 -8.568035220685049353e+03 -8.569085792817359106e+03 -8.575006458453215600e+03 -8.580157681881353710e+03 -8.580746770753190503e+03 -8.582454933619132134e+03 -8.587156332137701611e+03 -8.586944922373822919e+03 -8.590119734421381509e+03 -8.597150084834507652e+03 -8.598208115504186935e+03 -8.603912670861318475e+03 -8.608944564652078043e+03 -8.616455339047981397e+03 -8.612614757073355577e+03 -8.616873906816381350e+03 -8.616750182546917131e+03 -8.599794505835725431e+03 -8.584099158093749793e+03 -8.562250910783042855e+03 -8.641360364490597931e+03 -8.797107076928579772e+03 -8.360569698263463579e+03 -6.151208289350600353e+03 -3.322651370686601808e+02 -1.870947106726642915e+02 -8.696144199769713623e+01 -1.896712357230283308e+00 3.896198571204730854e+01 4.661723104667991180e+01 8.856390136530035306e+01 1.248731604749236510e+02 1.451266236409792612e+02 1.746950976736748373e+02 1.993852629139948931e+02 2.337465902339867512e+02 2.719360492436198342e+02 3.333428833178123796e+02 4.334496472483417051e+02 5.783314464748767705e+02 6.148420300421141746e+02 5.343101141701152983e+02 4.535221907129875945e+02 3.961857738212205504e+02 2.143170390202235467e+02 1.611973957365908916e+02 1.364761800864618522e+02 1.240526063529063947e+02 1.072553584756454370e+02 8.846019475605805837e+01 7.401486367670557343e+01 6.020905513134425746e+01 5.618920973095995208e+01 3.741371593719063782e+01 3.446201744892720598e+01 3.190897574871772946e+01 3.347151749166506818e+01 2.549516737190043614e+01 3.094346533699558677e+01 4.328121032219809194e+01 3.787962794969417502e+01 4.073395182322241936e+01 5.340517509733386703e+01 6.226956069267382077e+01 7.352575461944090307e+01 8.829611406229703618e+01 9.910411211035049917e+01 1.261936640743304849e+02 1.425434813084892767e+02 1.552779540600158441e+02 1.872416394089538585e+02 2.041886810392518043e+02 2.139126130741755674e+02 2.194832085464841782e+02 2.101667961465925600e+02 2.071463808957859101e+02 2.011259443272915917e+02 1.982404188980423498e+02 2.027623813006460125e+02 2.087363774354330701e+02 2.121449337919271727e+02 2.246890626929417749e+02 2.304367991015075177e+02 2.384586266021973415e+02 2.533788090388728165e+02 2.730624514815585826e+02 2.859222520620731984e+02 2.971934625895079307e+02 3.176649547962395559e+02 3.393579903471550097e+02 3.495981149104795804e+02 3.825196015068798943e+02 4.199863724239552880e+02 4.681853989800296176e+02 7.531406848201763751e+02 1.091736344612804032e+03 1.074388234681949825e+03 8.021347011579206310e+02 5.271639401437721517e+02 2.114431526531283225e+02 1.007676983259301409e+02 3.724853175541829131e+01 -9.813116451698587070e+02 -4.458878396293810511e+03 -4.671765135791585635e+03 -4.424058185980410599e+03 -4.717279580061515844e+03 -5.232282773157611700e+03 -5.991544034616254066e+03 -6.717066483358743426e+03 -7.708795271622506334e+03 -8.544508666616979099e+03 -8.854946580057214305e+03 -9.105114210741909119e+03
-8.565506187584651343e+03 -8.572440025157160562e+03 -8.579388459209796565e+03 -8.583007671966304770e+03 -8.586797336846148028e+03 -8.592269921310758946e+03 -8.595523891396129329e+03 -8.599611348219370484e+03 -8.604767643108387347e+03 -8.608615018347409205e+03 -8.610984268452280958e+03 -8.616994202427116761e+03 -8.628049487479036543e+03 -8.629094093024874383e+03 -8.633835037843473401e+03 -8.633850341035989914e+03 -8.634848102850510259e+03 -8.630296692331758095e+03 -8.611142738348202329e+03 -8.579573272054429253e+03 -8.534947592173948578e+03 -8.600882578253993415e+03 -7.635759247114572645e+03 -7.458582646177771494e+03 -1.991161647033406325e+03 -3.616078433665530270e+02 -1.434698170359002063e+02 -3.222076935606739312e+01 -1.381972807118726054e+00 3.815949177187926722e+01 5.709558959701943337e+01 8.899603514532745407e+01 1.345869495773925451e+02 1.540932312161678794e+02 1.742575722105326861e+02 2.524712177916852340e+02 3.061251426249705219e+02 3.149400165705778818e+02 3.224155365936804287e+02 4.281012700546867791e+02 5.350944050990570986e+02 5.609260656235124998e+02 5.877035463804716073e+02 5.459303140029738870e+02 3.600932789490061054e+02 2.339190751745101409e+02 1.732659825602204648e+02 1.389388927685556894e+02 1.348498634442499053e+02 1.210686235944846345e+02 9.968786337680533904e+01 9.380020341727821176e+01 8.420229839573035235e+01 7.416629396567742560e+01 7.933550057638876751e+01 5.434537895696436749e+01 4.240438548762482895e+01 6.114565602995094196e+01 5.596163876332416010e+01 5.147434912943506902e+01 6.486914014382946903e+01 6.282372416485532796e+01 6.915192636768647105e+01 6.939615195995580166e+01 7.086466614070747028e+01 6.542175352062204752e+01 8.812144942166281680e+01 1.001136630474685205e+02 1.164926789826293572e+02 1.344240101609090061e+02 1.508872689496428450e+02 1.694155361996262457e+02 1.914805288059071131e+02 1.999381784716388495e+02 1.999616244312376807e+02 2.010260509777513391e+02 1.954732623657071997e+02 1.934967762976648658e+02 1.949016857688226594e+02 2.038416430451368910e+02 2.073051635596618212e+02 2.108669551537481937e+02 2.199202383337965330e+02 2.269114766616420980e+02 2.357872676597549173e+02 2.461520302301688332e+02 2.698614268441855870e+02 2.865245096232852688e+02 3.054290667143935707e+02 3.164200197580888698e+02 3.299903466618462176e+02 3.437106004292401167e+02 3.505569061028181750e+02 3.993063329038763527e+02 4.434926383698817745e+02 6.841020810101584857e+02 9.629768458719056525e+02 1.134281313305645426e+03 9.203409608342435604e+02 6.758779442583245327e+02 3.020395482434603309e+02 1.077662553435633725e+02 7.460489386695498126e+01 -9.689765379595311288e+02 -3.317805939866646895e+03 -4.488413304634049382e+03 -4.319050767142893164e+03 -4.697464406840311312e+03 -4.953432770942268689e+03 -6.033587178440974640e+03 -6.958682398775675210e+03 -7.711200434889408825e+03 -8.501123806527857596e+03 -8.950449134962758762e+03 -9.035311560329639178e+03
-8.569496271534244443e+03 -8.576430149072668428e+03 -8.583788556736300961e+03 -8.591528505315811344e+03 -8.595873311490860942e+03 -8.598178062597815369e+03 -8.603158722077963830e+03 -8.611481611881954450e+03 -8.615660856875572790e+03 -8.621077304456623096e+03 -8.626456695575972844e+03 -8.637493628322132281e+03 -8.641094389331125058e+03 -8.654802343064151501e+03 -8.651325388834817204e+03 -8.651641515097213414e+03 -8.652330493642435613e+03 -8.629761450476949904e+03 -8.604478278673806926e+03 -8.531164865321132311e+03 -8.116113134496918974e+03 -7.761536915582320944e+03 -4.664541984089219113e+03 -2.462782030825267611e+03 -9.165309997373777833e+02 -1.721362775948558124e+02 -5.649433723420830944e+01 -2.368689828844434686e+01 1.328706502840834602e+01 3.774981662593088316e+01 6.467354117338021524e+01 1.050194951844542430e+02 1.355926725701158375e+02 1.793138846726160978e+02 2.297188606678540168e+02 3.236803170904623244e+02 3.765663839110155209e+02 4.113238512757504850e+02 3.648885951700089549e+02 3.982143874390832252e+02 4.540561511231185250e+02 5.302510864728836850e+02 5.377551294058528129e+02 4.554697250021091008e+02 2.664990013563266302e+02 2.569451888160187423e+02 1.970516548101992385e+02 1.555211027557239163e+02 1.477846099188334392e+02 1.462205833947623432e+02 1.200288424374731449e+02 1.066217987245973262e+02 1.003525893184241653e+02 9.693577434579941610e+01 8.724880612641842959e+01 8.700335763891422403e+01 6.372903300775323743e+01 1.212716513347881602e+02 9.751676071974878823e+01 9.004323811212681505e+01 7.182571403006491551e+01 7.458866907813064984e+01 7.778519802998465593e+01 8.583197159114369867e+01 8.092567385730595220e+01 8.808879110896278064e+01 9.448016557443054353e+01 9.822166281082867556e+01 1.116822288566370673e+02 1.167143673062297466e+02 1.423477335424821888e+02 1.621155844018353491e+02 1.734786679802356844e+02 1.864583669159280817e+02 1.849095939673097746e+02 1.859197431997524177e+02 1.889209598531297445e+02 1.903085980603254654e+02 1.950419396983828904e+02 1.994312843683749179e+02 2.063506758684408737e+02 2.143935451595773429e+02 2.228589246315293906e+02 2.277127343688711960e+02 2.382506406102117751e+02 2.496053508084732186e+02 2.655177021775688218e+02 2.718911624896953754e+02 2.888426789628396136e+02 3.028612251168975149e+02 3.219327205243260437e+02 3.422836179594837631e+02 3.489913747019973584e+02 3.706171944076859290e+02 4.387763845504266556e+02 5.544213729551124743e+02 9.492438586807999172e+02 1.175831503164316700e+03 1.107565571663450328e+03 8.072644613891264953e+02 4.994763223795668523e+02 2.098586001794527078e+02 9.100519867212489089e+01 -4.986374499509747125e+02 -3.304618731935444430e+03 -4.940537688168807108e+03 -4.339618808057933165e+03 -4.659914825756525715e+03 -5.138528287102149079e+03 -6.258254791556435521e+03 -7.232311690530103078e+03 -7.950832151859690384e+03 -8.521182842790032737e+03 -8.906532036103400969e+03 -9.090061439244394933e+03
-8.570386674536366627e+03 -8.579621803934842319e+03 -8.588556165449774198e+03 -8.594691393674069332e+03 -8.600868233211027473e+03 -8.605819631091822885e+03 -8.610877124354836269e+03 -8.617858415678920210e+03 -8.625924218540281800e+03 -8.631713498942104707e+03 -8.643471124090627200e+03 -8.654365728254484566e+03 -8.659389950699831388e+03 -8.664932259328776126e+03 -8.666507568004873974e+03 -8.617633357690856428e+03 -8.594326351829833584e+03 -8.429572397259753416e+03 -8.310417841515642067e+03 -7.916725214716622759e+03 -6.383480507384657358e+03 -5.409674458380449323e+03 -3.557857100170658214e+03 -8.269682052376564343e+02 -2.460096713991234481e+02 -9.202177579893196935e+01 -4.740426956731649000e+01 3.708712858587226879e+00 2.885487350664866213e+01 5.428766371193832896e+01 8.424862481666076519e+01 1.019970532366411646e+02 1.480912798960255827e+02 1.943022637802866939e+02 2.249191214479127723e+02 2.644841004062955108e+02 3.087726203695245317e+02 4.567635615090757710e+02 5.337954941915789959e+02 4.868519144085279322e+02 4.739157675987699463e+02 5.687717183624116615e+02 5.412766636476947042e+02 3.886381584288728277e+02 3.054476844491330780e+02 3.200536446286211003e+02 2.370750809026247907e+02 1.780048631721714401e+02 1.654679698059168516e+02 1.597445196073827560e+02 1.541169422583083986e+02 1.370042695886989748e+02 1.233925078230221004e+02 1.199676626418910530e+02 1.099761588653793893e+02 1.206436967346748048e+02 1.246058878166337109e+02 1.487818296160601790e+02 1.238055215097415953e+02 1.163003868199380548e+02 1.048724418362024551e+02 9.852296763859064299e+01 9.952711618838851848e+01 9.193006520967654183e+01 8.823831907640004601e+01 9.326108988246599552e+01 9.767701290357908306e+01 1.044827238547095902e+02 1.110794867671133375e+02 1.153984761381916115e+02 1.366265802261959834e+02 1.542631360769230184e+02 1.552556353784657119e+02 1.683872422894317253e+02 1.755398435078447505e+02 1.782543320395002411e+02 1.795181545624411967e+02 1.865668814291733781e+02 1.930554516026471390e+02 1.987848545510345559e+02 2.051556964663493545e+02 2.122652868332530147e+02 2.211666323794323148e+02 2.278163971386279059e+02 2.329954531474388375e+02 2.416399459547317576e+02 2.572135329358323474e+02 2.669776829270111307e+02 2.787390565306670283e+02 2.942418834288235985e+02 3.119347845701410051e+02 3.377979105174096048e+02 3.439869544237724313e+02 3.604760086967676784e+02 3.975550039275528889e+02 4.160611736586513985e+02 8.198245158942154376e+02 1.166937539809935288e+03 1.157251867244447340e+03 5.393920856837629572e+02 4.440854437545688143e+02 2.198814769357107366e+02 8.365810957627053313e+01 -8.474562554825995164e+01 -3.326319260651204331e+03 -4.743280642916910438e+03 -4.398832046995306882e+03 -4.586990558681360199e+03 -5.153502390612941781e+03 -6.005179347299498659e+03 -6.764033473982902251e+03 -7.948968884202702611e+03 -8.535756245760121601e+03 -8.972859556832288945e+03 -9.286855434261686241e+03
-8.570282807438770760e+03 -8.582682995335841042e+03 -8.589071942594537177e+03 -8.598915150302984330e+03 -8.605385994518586813e+03 -8.611548122074129424e+03 -8.619133961224757513e+03 -8.627773877895391706e+03 -8.635988030744820207e+03 -8.647242957676586229e+03 -8.658649707099313673e+03 -8.666946575017072973e+03 -8.669498516748453767e+03 -8.655907488331075001e+03 -8.646985890049372756e+03 -8.598865779421990737e+03 -8.309548972423917803e+03 -8.042903654998475758e+03 -7.580405424721933741e+03 -6.035540180167126891e+03 -4.759840020135447958e+03 -3.554420466301137822e+03 -1.476198752046066147e+03 -2.844908185240637977e+02 -1.598797215879497173e+02 -7.351250872293520899e+01 -2.072746280644719974e+01 1.757853602224949796e+01 4.476311176729196717e+01 6.831266041971980485e+01 8.060201068397149982e+01 1.058474227967657129e+02 1.417844009312032654e+02 2.002256332249366721e+02 2.349368639940100252e+02 2.472325710708428801e+02 3.110148356550242283e+02 3.901982366801330500e+02 5.354663399233198788e+02 5.882461215270349157e+02 6.066489970660554718e+02 5.869829420741898502e+02 5.015381193760659926e+02 4.299315079372490231e+02 3.934141749070453784e+02 3.075230127891015854e+02 2.456571647861265717e+02 2.074901109981099410e+02 2.029116821518097140e+02 1.749302671360295278e+02 1.692515944207279688e+02 1.579580389863009771e+02 1.430838809706424115e+02 1.377100600161846273e+02 1.467355683212413453e+02 1.743808596223764198e+02 1.884924787847268135e+02 1.815765522199986322e+02 1.390031581636463045e+02 1.290675548075135453e+02 1.234520604732249467e+02 1.165334155866945594e+02 1.128624958553024697e+02 1.089212659465333957e+02 1.016851183123648354e+02 1.025609771779017336e+02 1.055152364910019003e+02 1.034364145390421896e+02 1.076014244841592529e+02 1.173554739696290170e+02 1.289487584980128929e+02 1.427846405428833521e+02 1.477721077873990225e+02 1.588344791223081529e+02 1.678971395366106378e+02 1.730764891157862166e+02 1.755935525936988597e+02 1.802299094700218234e+02 1.932405984342021839e+02 1.996719529807784284e+02 2.047818956177439418e+02 2.115060381042927418e+02 2.192071294072673879e+02 2.288869607747950283e+02 2.364792255118096875e+02 2.432842828163808520e+02 2.487383962617680879e+02 2.615466351791150146e+02 2.736210475905795079e+02 2.848662791648411030e+02 3.087274911957695736e+02 3.272971811343795139e+02 3.399762628175112127e+02 3.678742115363510834e+02 3.880029041865443560e+02 4.187949184547948107e+02 5.497489909189339414e+02 7.536549874538308131e+02 9.062997175673156107e+02 6.999354487428487346e+02 3.018660285524962319e+02 1.302271573301766807e+02 6.506711552384190611e+01 -1.741586338084632501e+01 -3.106781478135786074e+03 -4.549296921534250032e+03 -4.445859494275844554e+03 -4.789133319026415847e+03 -5.353584186582154871e+03 -6.234606882846956978e+03 -6.980024393271670306e+03 -7.933257775256045534e+03 -8.592314999072801584e+03 -8.864995482303738754e+03 -9.123893515236572057e+03
-8.574787158429695410e+03 -8.582830158072782069e+03 -8.591647262410178882e+03 -8.602080949557717759e+03 -8.609336115617434189e+03 -8.618730349724615735e+03 -8.631714495594140317e+03 -8.639935021193376087e+03 -8.650623635697476857e+03 -8.659430280959964875e+03 -8.665663478734326418e+03 -8.642419866050859127e+03 -8.633507516230805777e+03 -8.517905851118977807e+03 -8.466042613426872776e+03 -7.959268405213201731e+03 -6.993476725888230249e+03 -6.274197428149551342e+03 -4.895691169230766718e+03 -4.032559533922243645e+03 -2.935850036788635407e+03 -1.932082535611437379e+03 -1.160180603341673759e+03 -2.698002080045803837e+02 -1.313520409163587033e+02 -4.533396743951440300e+01 -1.558283929924311018e+01 1.028737804767856190e+01 4.655376784965028492e+01 8.336422192516118912e+01 1.173501823675808140e+02 1.444623744955145241e+02 1.585622857728228041e+02 2.225383914530491722e+02 3.167601209637005013e+02 3.442674365849904348e+02 3.497269611724948959e+02 3.855498184473495940e+02 4.921458287987205722e+02 5.883457557877959516e+02 5.736193785179199267e+02 5.157147457541595941e+02 4.512130587176059180e+02 4.046623408861387361e+02 3.546752863733491381e+02 3.063371464695410396e+02 2.803589215034390918e+02 2.409305797957009645e+02 2.133621404466804279e+02 2.011395727606235369e+02 1.920897566998218338e+02 1.825507681785762486e+02 1.731665866420676991e+02 1.649910469074457922e+02 1.927858407602848843e+02 1.966782619239801875e+02 1.866696310466448381e+02 1.735572616185634729e+02 1.600002107729015677e+02 1.448000472866661710e+02 1.340438924711203015e+02 1.294510258851997833e+02 1.234055110826142112e+02 1.171376407927611467e+02 1.154349215515247664e+02 1.144608787217505608e+02 1.120938298556213937e+02 1.100800987718840958e+02 1.070640370396963590e+02 1.188806840354565679e+02 1.210429065864595515e+02 1.331986564139230893e+02 1.406439580828604790e+02 1.503862136994939931e+02 1.562742434646931997e+02 1.692249140692402136e+02 1.726195263652897154e+02 1.775622932070945694e+02 1.895310699424887844e+02 1.990092921049742074e+02 2.088093847255951516e+02 2.158262461757724111e+02 2.216361523785480188e+02 2.302420485488793531e+02 2.357186242337915871e+02 2.399604183446354000e+02 2.487465743992662510e+02 2.545912739681091352e+02 2.613383620118843851e+02 2.789958928764121993e+02 2.911248383720677566e+02 3.136701196994018233e+02 3.405978593164896324e+02 3.420813208172820055e+02 3.556587052820927397e+02 3.869134820504690992e+02 4.402338669299219305e+02 6.113440099902327347e+02 6.822461534738746423e+02 5.509145142048326989e+02 2.923511878221658549e+02 1.142868684782086746e+02 6.084402536495841929e+01 -3.163194759903084901e+02 -1.742455127543561957e+03 -4.551956772717668173e+03 -4.472296725552361750e+03 -4.819534730871355350e+03 -5.261231604354307819e+03 -6.097915341040908061e+03 -7.041488034844447611e+03 -7.887804033851244640e+03 -8.517788770751181801e+03 -8.778618696908106358e+03 -8.942761327283547871e+03
-8.581481171863391864e+03 -8.589145376590502565e+03 -8.598087261950720858e+03 -8.612909865883200837e+03 -8.619046451734462607e+03 -8.634186913502768220e+03 -8.638602482117275940e+03 -8.656294692402198052e+03 -8.659130169382970053e+03 -8.661838387938007145e+03 -8.594800362286692689e+03 -8.527919877673159135e+03 -8.498477421320529174e+03 -8.163088156766315478e+03 -7.553041613477756982e+03 -6.190441812252021009e+03 -5.533022534707900377e+03 -3.609159416388910813e+03 -3.348080184581761841e+03 -2.734519698616547885e+03 -2.006310218616820976e+03 -1.315887308712821778e+03 -5.134032074112217288e+02 -2.608653010590069243e+02 -1.363655060388769016e+02 -6.984468295923818459e+01 -7.913463015947641566e-01 3.912233987020378834e+01 6.285988662762238732e+01 1.077708932622190900e+02 1.270827478439115339e+02 1.679039939983057650e+02 1.803978177829587537e+02 2.085397236744472593e+02 3.006036989589853761e+02 4.228061670742743559e+02 4.815103362749022722e+02 4.722821049713467687e+02 5.315633164708272034e+02 5.698404590495649700e+02 5.328867466842104932e+02 4.620310628796598280e+02 4.198184908949621672e+02 3.748546451876226229e+02 3.462036758289257250e+02 3.322207871394327867e+02 3.098060721565843210e+02 2.567368147089832178e+02 2.401988642191455199e+02 2.193825288050518623e+02 2.038273374299687077e+02 1.990170492210640134e+02 1.923372415889222395e+02 2.038468650035627547e+02 2.199176723125535204e+02 2.057663842679365018e+02 1.899983678562019804e+02 1.763944118900136857e+02 1.687204250856882197e+02 1.641233482281126612e+02 1.483968900206121759e+02 1.421903052645354819e+02 1.348192296475722571e+02 1.270114606746038248e+02 1.240109152539150728e+02 1.212659471056399667e+02 1.199091362368242528e+02 1.133700010163302352e+02 1.102263668346980694e+02 1.166728213027149366e+02 1.213273411139574876e+02 1.308582080571433437e+02 1.392558023703321339e+02 1.432749795252632907e+02 1.491468336416388922e+02 1.603196946705396044e+02 1.687375870782221625e+02 1.768044364658378811e+02 1.844074353300172220e+02 1.965369660324545293e+02 2.057183555691404422e+02 2.178148103166958833e+02 2.202325003101876746e+02 2.333045300515192366e+02 2.363889959294336904e+02 2.410601386226501290e+02 2.495885164813815038e+02 2.583084807836553978e+02 2.627502172562255964e+02 2.750821425916504950e+02 2.820517351684264895e+02 2.877388687406229337e+02 3.072256529219478125e+02 3.291372782969012860e+02 3.358285020033016508e+02 3.399081868987370285e+02 3.163524007656326376e+02 3.618318024403132540e+02 3.505580989583211249e+02 3.550104595882806962e+02 1.572831114520366214e+02 7.845628969202188330e+01 6.315247655770666313e+01 -4.586275162898229496e+02 -2.096048679958003049e+03 -4.647371736902327939e+03 -4.455029259428139994e+03 -5.004718117777010775e+03 -5.346376562339608427e+03 -6.286306171417917540e+03 -7.075223954832314121e+03 -7.687357791883837308e+03 -8.339236296885934280e+03 -8.768841573829808112e+03 -9.000893588916262161e+03
-8.599243402469599459e+03 -8.604141271940441584e+03 -8.612451729656804673e+03 -8.630701769708628490e+03 -8.638501023509990773e+03 -8.647940490629678607e+03 -8.656288605367808486e+03 -8.667705232500558850e+03 -8.660390060447434735e+03 -8.620520666274980613e+03 -8.452264020399137735e+03 -8.082172718871259349e+03 -7.646002490698085239e+03 -6.088189977288065165e+03 -5.033503057317358071e+03 -4.223399106899941216e+03 -2.777162833622177914e+03 -2.493909325781601183e+03 -2.308539340981310488e+03 -1.820403272271335936e+03 -1.388151934809299746e+03 -7.332842309959573868e+02 -2.991553655628102888e+02 -2.375317789720259896e+02 -1.298451986992179172e+02 -4.452462747447099645e+01 3.733269145794850363e+00 4.316240125885263268e+01 7.686042496427084814e+01 9.946263565952236263e+01 1.546267720246508190e+02 1.860066048144875026e+02 1.994000188609009570e+02 2.150049822116976088e+02 3.385355166411289929e+02 4.565147263558217219e+02 4.530668281561448794e+02 5.354874209317581517e+02 6.125947176822526217e+02 6.025902753511338688e+02 4.991628640373385224e+02 4.523557937616405411e+02 4.304350465336976868e+02 3.921236967485206151e+02 3.647098378868574855e+02 3.365773455634782749e+02 3.150193143012060659e+02 2.750990262211601021e+02 2.522540009035651565e+02 2.495601152769603743e+02 2.316011481003554877e+02 2.327321862283525888e+02 2.204532326686661179e+02 2.217930284128175060e+02 2.287047046320153640e+02 2.192007507452373716e+02 2.174334589823126862e+02 2.134861251017060226e+02 1.972020246440999927e+02 1.710910476509993146e+02 1.575902895540878603e+02 1.529777943369072659e+02 1.464573603562996027e+02 1.416100882473143088e+02 1.368343053147888781e+02 1.274989869768757558e+02 1.235191824816715496e+02 1.233093490507825152e+02 1.225865066568798625e+02 1.235156596281804013e+02 1.261035173868664003e+02 1.279343879044731835e+02 1.340416085108728907e+02 1.433340849233894971e+02 1.473461135701557225e+02 1.597028105967944498e+02 1.612322494000561051e+02 1.742280788775687483e+02 1.851305053647652983e+02 1.991581918852507727e+02 2.087951760538092572e+02 2.174210165014189329e+02 2.251108305192680064e+02 2.344198090919138053e+02 2.442910775325889574e+02 2.501010542795107199e+02 2.523345916863834475e+02 2.659794206031092472e+02 2.734044961500167119e+02 2.769887277715428695e+02 2.849584748828578427e+02 2.919535137404513421e+02 3.025024896453153360e+02 3.190516878750107139e+02 3.167111367046920236e+02 3.171005331852700238e+02 3.098794320331077756e+02 2.744007872684121025e+02 2.391422118296709129e+02 2.418637603328004104e+02 1.132972949708497055e+02 6.459547038879996705e+01 -2.318245297553049866e+01 -3.555300848538266223e+02 -2.536887628341645723e+03 -4.193414894093432849e+03 -4.259886332810642671e+03 -4.723020554110954436e+03 -5.516921305038747960e+03 -6.703307294448041830e+03 -7.666829015117837116e+03 -8.176459931753041019e+03 -8.713146222650811978e+03 -8.810531302919012887e+03 -8.965827456270028051e+03
-8.610897498329934024e+03 -8.621951366073935787e+03 -8.644048884304342209e+03 -8.643938863174324069e+03 -8.657849275646362003e+03 -8.668161180247167067e+03 -8.671399351529431442e+03 -8.667715875668280205e+03 -8.632456231610802206e+03 -8.379948322199288668e+03 -8.031407871354438612e+03 -7.082876475002621191e+03 -5.496143659480889255e+03 -4.449496233862729241e+03 -3.868715355507996264e+03 -2.644565079613825219e+03 -2.000281583761302727e+03 -2.084372381975421831e+03 -1.870839353205207090e+03 -9.567097066535363865e+02 -7.939327676256505129e+02 -5.574494419451489193e+02 -2.688519400896772140e+02 -1.314237537111827976e+02 -6.412391545349338173e+01 -1.258292530412214560e+01 -5.709706875054989972e+00 3.616897646364993335e+01 7.910577278259492573e+01 1.359828002439139993e+02 1.640029879363819134e+02 2.028540342706710362e+02 2.594247732919614577e+02 2.879828554936923410e+02 2.770397889370549365e+02 3.444653164070807065e+02 4.256204794621980341e+02 5.281715041469573180e+02 6.087675136555775453e+02 5.812404066753476855e+02 5.163635799983225070e+02 4.662033505826753412e+02 4.153797732075908016e+02 3.901678735642591391e+02 3.582277490250681353e+02 3.428639702930312865e+02 3.143950292422424582e+02 3.053666183842663031e+02 2.765065218956033846e+02 2.649294237590872854e+02 2.622921952799268865e+02 2.549397209943862777e+02 2.427442329430826078e+02 2.459183739585564581e+02 2.497167674823049595e+02 2.384862456275154159e+02 2.281449108797670533e+02 2.249992745323929171e+02 2.074677231479956561e+02 1.823082065688129774e+02 1.684683225879268491e+02 1.621395347810742180e+02 1.552186289136492690e+02 1.502311281095333868e+02 1.465029491702843814e+02 1.404574755663434757e+02 1.305266075496707288e+02 1.260113387919969767e+02 1.244804023892703242e+02 1.237994579855785560e+02 1.270039360621415199e+02 1.290997434478979073e+02 1.332581839283382692e+02 1.439300321274461965e+02 1.502348922670570346e+02 1.585395823817316057e+02 1.696541394486962702e+02 1.819494951813875048e+02 1.863552212691407135e+02 1.997098605324604819e+02 2.114235927701974447e+02 2.208840012572291869e+02 2.315279405168190863e+02 2.407652153848244154e+02 2.511936617469015971e+02 2.552125135674049830e+02 2.631301231614116887e+02 2.809831022331632084e+02 2.857818323023343510e+02 2.864367328077952379e+02 3.045532748031702113e+02 3.091755021122586982e+02 3.207032027778559495e+02 3.193723914523856138e+02 3.163014056159379379e+02 3.128920632433292894e+02 2.898508516360805061e+02 2.362992926875872399e+02 1.958112745776603276e+02 1.582620056584121642e+02 9.770118691224379859e+01 3.889590593995548318e+01 -3.340821314582676393e+01 -7.257137740966309138e+02 -2.733357581253808803e+03 -4.680312230222629296e+03 -4.597159838962263166e+03 -4.985655954910355831e+03 -5.742622763691523687e+03 -6.477218789922435462e+03 -8.312171540595883926e+03 -8.900092723398349335e+03 -8.910154354423355471e+03 -8.904160313662565386e+03 -8.913862510297916742e+03
-8.639192040941270534e+03 -8.643878270993158367e+03 -8.653637618305598153e+03 -8.660825679744912122e+03 -8.675209613580596852e+03 -8.682304036845624069e+03 -8.699360929999967993e+03 -8.666964042892299403e+03 -8.625754797768960998e+03 -8.445734491044113383e+03 -6.974280635517930932e+03 -5.852094775744732942e+03 -4.471669641400785622e+03 -3.571171710984017409e+03 -2.925309827908437910e+03 -2.127347785713285703e+03 -2.024610076044719790e+03 -1.920784585028508900e+03 -1.020115602720192783e+03 -5.903543498149124389e+02 -3.373147108931184448e+02 -2.714732710972679115e+02 -1.955650924770613130e+02 -6.199796575670021781e+01 -2.596845804900477361e+01 -1.064845750169419958e+01 2.519343829119409506e+01 5.287861181536607091e+01 1.444133233674695873e+02 2.102374781371379981e+02 2.556312914573494197e+02 2.838341798653999035e+02 3.064273162474124206e+02 3.446316043359199170e+02 3.477786846564416123e+02 3.908092407770947148e+02 4.475968814239963081e+02 5.961458397836396443e+02 6.109662708960510145e+02 5.528038119875001257e+02 4.992568862590585468e+02 4.357416585751742559e+02 4.092953589801064140e+02 3.891303044742775228e+02 3.615937992273488817e+02 3.442800231549767318e+02 3.195826292691847357e+02 3.117170290935947037e+02 3.058808466706321383e+02 3.001629054361944213e+02 2.810614606913651414e+02 2.936493459057966220e+02 2.802274880296174615e+02 2.915805555237908493e+02 2.988411488546449846e+02 2.702250656561415099e+02 2.383233380127779242e+02 2.343646832461447786e+02 2.224080132254863145e+02 2.077832950232931353e+02 1.900492733272334362e+02 1.843057685410400950e+02 1.742132131027099717e+02 1.606809445938104659e+02 1.546358707841590672e+02 1.506126595012667053e+02 1.358154022856669485e+02 1.297407715680778608e+02 1.289904088810303335e+02 1.262653115378369932e+02 1.276852019620213099e+02 1.294294743117046380e+02 1.319258433880389134e+02 1.428063045517915839e+02 1.481744192118872832e+02 1.630175512286189416e+02 1.683729239069110406e+02 1.802572260704827443e+02 1.897328404271687816e+02 2.027762558918758771e+02 2.098692976074309229e+02 2.203559762868464418e+02 2.322495328245784378e+02 2.450211345309932653e+02 2.524352063617044166e+02 2.690435982064149698e+02 2.843052983863289001e+02 2.978597799665900538e+02 3.076175728535108078e+02 3.405436720986345449e+02 3.460835032680310519e+02 3.396716187359798482e+02 3.388179411702427615e+02 3.290877573479465923e+02 3.208327038032225005e+02 3.064140849274505740e+02 2.775879407903193510e+02 2.424190560173047402e+02 1.897026804483082003e+02 1.212102881440286950e+02 8.196486023960463285e+01 6.694160122215146203e+01 -2.071336995036885753e+01 -3.547980151240569739e+02 -1.414904736840435135e+03 -4.575098135238667965e+03 -4.658074440343272727e+03 -5.169836595244347336e+03 -6.101157975262181935e+03 -6.988702342077383037e+03 -7.962733520150924960e+03 -8.698973177243608006e+03 -8.881216462043925276e+03 -8.906924756202950448e+03 -8.936625700012789821e+03
