-5.508456070369999907e+03 -4.991474066419999872e+03 -4.894057935899999393e+03 -5.308040783139999803e+03 -4.965621029339999950e+03 -4.066706334280000192e+03 -4.579380940510000073e+03 -3.961195540180000080e+03 -3.462444714149999982e+03 -2.306923287520000031e+03 -9.493660081319999335e+02 -4.376674184299999979e+02 -1.402911546570000212e+02 -9.200748469600000590e+01 3.607804929889999812e+01 1.141192923539999953e+02 1.802521707559999982e+02 2.931221487690000345e+02 3.247527281970000104e+02 3.007667545159999918e+02 4.263287658159999864e+02 4.488146775869999487e+02 4.258141432430000464e+02 4.758973526440000228e+02 4.952095568809999691e+02 5.341041617559999395e+02 5.123350282259999631e+02 4.836737875119999899e+02 4.969383165990000180e+02 4.490762341050000259e+02 5.237273885619999874e+02 5.540149763370000073e+02 5.192764961609999546e+02 4.568520017730000404e+02 3.906281816890000300e+02 3.880777873989999875e+02 4.141037284619999923e+02 3.631644862390000412e+02 4.034391593319999743e+02 4.275867250769999828e+02 4.011933623539999871e+02 4.303910198869999704e+02 4.298532148190000157e+02 3.984535002940000368e+02 3.527695274669999890e+02 4.537410133249999831e+02 3.439130523309999603e+02 4.268648640969999519e+02 3.520995285980000062e+02 3.804181443630000103e+02 3.319070871659999966e+02 3.102205776640000181e+02 2.692249468190000243e+02 2.319061962179999909e+02 2.787567090900000153e+02 1.930040485070000216e+02 8.502194483640001010e+01 9.512566548559999546e+01 2.533843254699999648e+01 9.371790524639999731e+00 -1.345993128079999934e+01 1.255211082140000123e+01 2.802274375709999887e+01 7.152838214339999467e+01 3.057212442469999658e+01 3.191841316320000033e+01 4.104226610590000490e+01 8.590263656190001029e+01 1.510425525560000040e+02 6.874566014430000394e+01 9.549619608219998668e+01 1.524250224760000094e+02 1.222514377050000007e+02 1.485088289729999929e+02 1.922146465630000023e+02 2.179126499679999824e+02 2.207999523150000130e+02 2.139010681649999981e+02 2.170369057380000015e+02 2.364228565530000026e+02 2.485012368630000026e+02 2.693176492580000172e+02 2.334695182209999871e+02 3.007210166820000268e+02 3.007754038179999725e+02 2.822113103709999677e+02 3.619692662190000192e+02 3.298172490019999827e+02 4.737914023159999601e+02 3.576231917860000067e+02 9.588889145709998729e+01 -1.848919452390000018e+01 -2.265021262909999962e+02 -4.171891246010000032e+03 -4.587454081800000495e+03 -4.898337423179999860e+03 -4.704971513550000054e+03 -4.716764842569999928e+03 -4.822300428419999662e+03 -4.265037144099999750e+03 -3.026463401599999997e+03 -2.955817869510000037e+03 -3.260505580709999776e+03 -2.622380954839999958e+03 -2.274305063419999897e+03 -1.868306639650000079e+03 -1.773284742520000009e+03 -1.236322728699999971e+03 -1.194997088059999896e+03 -1.256070533789999899e+03 -1.181765810330000022e+03 -1.379176369250000107e+03 -2.384594140449999941e+03 -2.754877151300000151e+03 -2.722850283679999848e+03
-4.498729841020000094e+03 -4.789254822779999813e+03 -4.564888061890000245e+03 -3.818124694380000165e+03 -4.204971907000000101e+03 -4.271378928289999749e+03 -3.912838555069999984e+03 -3.604372541289999845e+03 -2.957056566910000129e+03 -1.552786812799999780e+03 -6.328998688689999881e+02 -2.224252276859999711e+02 -1.219991509360000066e+02 1.347277335380000096e+01 3.366390594869999831e+01 6.448254978520000691e+01 1.774094476900000075e+02 2.706094967170000132e+02 3.059001920320000067e+02 3.043296052630000190e+02 3.859045618860000104e+02 5.008942737730000090e+02 5.429441259860000173e+02 4.475759080480000307e+02 5.100719434100000171e+02 5.713811836780000704e+02 5.564461758930000315e+02 5.468235301629999867e+02 4.757874701840000284e+02 5.374879827500000147e+02 5.332797003749999476e+02 5.081246986319999905e+02 4.564687526190000426e+02 4.855135959419999949e+02 4.456431698190000361e+02 4.628567907440000226e+02 4.383263817330000052e+02 3.632645693319999509e+02 4.187099811059999865e+02 4.854722689050000213e+02 4.923005564880000406e+02 3.378411198499999841e+02 3.996974310260000038e+02 4.091628989230000570e+02 3.838802552130000549e+02 4.132587237080000477e+02 4.105499536340000191e+02 4.170973255559999870e+02 4.141839009230000102e+02 4.679948294490000080e+02 4.132626363069999798e+02 3.471284774619999780e+02 3.132475709930000107e+02 2.592010970919999977e+02 2.692271154840000236e+02 2.310168940570000018e+02 1.020099128199999967e+02 1.023927455789999925e+02 6.034931675069999812e+01 1.405322062729999999e+01 9.993828493549999692e+00 1.526187440660000050e+01 1.314242812410000028e+01 5.367469731090000096e+01 4.812470228200000122e+01 3.130499227250000160e+01 4.651657101449999487e+01 1.143536982440000003e+02 6.608256082799999831e+01 7.608345954339999651e+01 1.448552845300000058e+02 1.156180576139999943e+02 1.871599337400000138e+02 1.759161262829999828e+02 2.158873663269999952e+02 2.243623500309999770e+02 2.755082917080000016e+02 2.454554823379999959e+02 2.860823565309999594e+02 2.950147035169999867e+02 3.398553542710000102e+02 2.982609674959999779e+02 3.045389633319999803e+02 2.755505994370000167e+02 3.026318983269999876e+02 3.184244606980000185e+02 3.075058673070000168e+02 3.640292386969999825e+02 4.864377897859999962e+02 3.819989650330000472e+02 2.150688003449999997e+02 2.747088668289999802e+01 -6.569088500600000202e+01 -2.960350727600000027e+03 -4.654764594369999941e+03 -4.591244011869999667e+03 -4.658870043140000234e+03 -4.656657458360000419e+03 -4.544501818980000280e+03 -4.542531117999999879e+03 -3.323607910289999836e+03 -2.969460577759999978e+03 -2.791184087850000196e+03 -2.511118727529999887e+03 -3.500665883290000124e+01 -1.624355012029999898e+03 -1.771308716660000073e+03 -1.737518803590000061e+03 -1.466292150049999918e+03 -1.214911677800000007e+03 -1.388846500630000037e+03 -1.541008007120000002e+03 -2.189020298769999954e+03 -2.823104514720000225e+03 -2.777554606789999980e+03
-4.708022099980000348e+03 -3.151196346140000060e+03 -3.334103992100000141e+03 -3.419351278980000188e+03 -3.542107840929999838e+03 -3.901812921289999849e+03 -3.906271261890000005e+03 -3.413258676920000198e+03 -2.096885294100000010e+03 -1.283603157810000084e+03 -6.213655618149999782e+02 -1.101496384260000099e+02 4.977791056229999356e+01 1.490648304260000057e+00 -2.228413735190000189e+00 5.590323081899999380e+01 1.455536585449999905e+02 2.425257537319999983e+02 3.219792559489999917e+02 3.787348731040000303e+02 3.726207057699999723e+02 4.479895633619999558e+02 4.453837249430000043e+02 5.016227163809999752e+02 5.892513806009999371e+02 5.841744547389999980e+02 5.190740187580000793e+02 5.359053191730000663e+02 5.095975377219999700e+02 5.279221915360000139e+02 5.133623814559999801e+02 5.090524375200000122e+02 5.127533760680000796e+02 4.533193564399999786e+02 4.808559999859999721e+02 4.429469774000000371e+02 4.528676275780000537e+02 4.006585175760000084e+02 4.285726119340000082e+02 4.918715654490000020e+02 4.688307386349999888e+02 4.225756616159999908e+02 5.110835605780000037e+02 4.446951114769999549e+02 4.510273628809999877e+02 5.116409057280000070e+02 4.845944043890000330e+02 5.272747308230000272e+02 4.693665498580000417e+02 4.651076405499999851e+02 4.352508781669999962e+02 4.179060129409999718e+02 3.759167783350000036e+02 3.150107758180000133e+02 3.261591899399999761e+02 2.071882207630000039e+02 1.481888214839999875e+02 1.310897905729999877e+02 7.250290527899998949e+01 3.077173642219999650e+01 2.183063583510000072e+01 2.825307294820000337e+01 1.686310896290000017e+01 4.291779902980000116e+01 7.175995929900000192e+01 2.809505276400000184e+01 3.218443034090000054e+01 7.274366246499999988e+01 9.809216074110000250e+01 8.390549554430000967e+01 1.242229187989999986e+02 1.532594783720000180e+02 1.826185194490000185e+02 2.061713147229999947e+02 2.100192989450000027e+02 2.770063495439999883e+02 2.846264965109999707e+02 2.662361411009999870e+02 3.212568944880000004e+02 4.231721765080000068e+02 4.007684529030000249e+02 3.652538638909999804e+02 3.681512232169999947e+02 3.497428852059999826e+02 3.741018940509999879e+02 3.563911157950000188e+02 3.601435121160000108e+02 4.388218258669999727e+02 3.356103740659999630e+02 2.847968048729999850e+02 5.305767331390000408e+01 5.435125276980000919e+00 -6.343744148209999878e+01 -2.005320678009999938e+03 -4.669124451800000315e+03 -3.961435022269999990e+03 -4.673366735319999862e+03 -4.771181482179999875e+03 -4.464236758650000411e+03 -4.209423489030000383e+03 -3.032442796559999806e+03 -2.252781117009999889e+03 -2.861188910729999861e+03 -2.853425865170000179e+03 -1.056220140270000002e+03 -1.275545857379999916e+03 -1.658466595849999976e+03 -1.626551882949999936e+03 -1.239144985099999985e+03 -9.671191573810000364e+02 -1.205133950709999908e+03 -1.643430420420000019e+03 -2.443228454550000151e+03 -2.741523477660000026e+03 -2.773220217210000101e+03
-3.240178048249999847e+03 -2.722543466109999827e+03 -2.661248503419999906e+03 -2.844310322599999836e+03 -2.998901982089999819e+03 -3.874826156149999861e+03 -3.985433231370000158e+03 -3.124387734580000142e+03 -1.483674139790000027e+03 -1.003606456729999991e+03 -4.829233578730000431e+02 -1.143481763959999995e+02 7.581371928380000291e+00 -1.492506292040000027e+01 1.764539394310000020e+01 5.854730144620000232e+01 1.615161383639999997e+02 2.633809961029999727e+02 3.117567854050000165e+02 3.634460406369999532e+02 4.095323215169999571e+02 3.927149619099999995e+02 4.435201018289999979e+02 5.196386906249999811e+02 5.389173675910000156e+02 6.083685768450000069e+02 5.866852575609999576e+02 5.917782697740000231e+02 5.432093881749999582e+02 5.089912727540000219e+02 4.542425576640000031e+02 4.717838085130000536e+02 4.435765111380000576e+02 4.876924902530000168e+02 4.254647862930000315e+02 4.580920732330000078e+02 4.548058431910000081e+02 4.813375919690000160e+02 4.251599672130000158e+02 5.275675811859999840e+02 4.075218117240000311e+02 4.003411486190000232e+02 4.938356835819999446e+02 4.418187552780000260e+02 5.391358353440000428e+02 5.646206972960000030e+02 6.113751649480000196e+02 5.287575699069999473e+02 5.525500934990000133e+02 5.462453209980000111e+02 5.246872812240000030e+02 5.173105986260000009e+02 4.221794757200000276e+02 3.178849790130000201e+02 2.557240578229999812e+02 2.091272896509999839e+02 1.638757533020000210e+02 1.287471795829999905e+02 5.822250584470000234e+01 4.406884595909999547e+01 2.820359085999999849e+01 2.135388063050000085e+01 2.296135189880000027e+01 2.239087953820000010e+01 2.697215273989999673e+01 4.534211698380000399e+01 4.352843639449999813e+01 1.222968401020000044e+02 1.309860616870000172e+02 9.251596750129999691e+01 1.454036148650000086e+02 2.118271901420000063e+02 1.578970326729999840e+02 2.055727396940000062e+02 2.565435541030000195e+02 2.982522591470000179e+02 3.531779305569999678e+02 2.989487040500000035e+02 3.227864069270000300e+02 4.068434594869999614e+02 6.131224088490000668e+02 4.116799403659999825e+02 4.436023369219999495e+02 3.946103556519999529e+02 2.321763998590000142e+02 2.757222199349999983e+02 4.222987944189999894e+02 3.398363623820000043e+02 2.455685574559999793e+02 3.591883746880000103e+02 8.160293038989999559e+01 -7.940967464640000806e-01 -5.457095272040000111e+01 -4.120133338009999875e+02 -4.177087562790000447e+03 -1.286236807060000046e+03 -4.679805353529999593e+03 -4.639161875830000099e+03 -3.954876271940000152e+03 -2.945471147480000127e+03 -3.020316948140000022e+03 -2.406472602519999782e+03 -2.650328075049999825e+03 -2.684005694810000023e+03 -2.591836742779999895e+03 -2.389216169419999915e+03 -1.775509416540000075e+03 -1.579729909520000092e+03 -1.214320181119999916e+03 -9.608268629210000427e+02 -1.313792489010000054e+03 -2.053150292549999904e+03 -2.477131544410000060e+03 -2.476890810880000117e+03 -2.240163835849999941e+03
-3.663739190390000203e+03 -2.704449767390000034e+03 -2.693955674230000113e+03 -2.211276618320000125e+03 -2.124579499829999804e+03 -4.167802721779999956e+03 -4.044032722300000387e+03 -2.885693534330000148e+03 -1.550558407550000084e+03 -9.910573806649999824e+02 -5.565271655100000316e+02 -9.566545444200001214e+01 -5.372168237840000415e+00 6.369278732320000636e-01 4.366925046869999960e+01 9.720928869889999646e+01 1.362325419450000084e+02 2.131240003730000012e+02 2.769445727699999793e+02 3.495962903050000250e+02 4.005175602730000151e+02 4.810748632130000146e+02 5.140810218309999300e+02 5.586435750319999443e+02 5.954486729840000407e+02 5.635506651069999862e+02 5.366887144490000310e+02 5.404067527350000546e+02 5.501536953300000050e+02 5.195235682369999495e+02 4.750301348649999795e+02 5.073215881500000251e+02 4.447342264369999612e+02 4.764325185590000160e+02 4.921425900769999657e+02 4.346350130269999568e+02 4.029002444380000156e+02 4.804409537519999844e+02 4.688319679250000149e+02 4.820264206350000222e+02 4.737195026880000341e+02 4.583669648290000396e+02 5.642341240910000124e+02 5.074401450030000547e+02 5.960475090310000041e+02 6.436394183380000413e+02 6.610626232810000147e+02 6.159222452169999542e+02 6.441915244389999771e+02 1.060196466280000095e+03 7.329707469030000766e+02 5.474405978330000835e+02 4.314151596809999774e+02 3.678821728319999806e+02 3.115063385199999857e+02 2.433959019029999808e+02 1.713298220190000052e+02 1.072394809099999975e+02 7.872773355449999144e+01 6.181819538619999577e+01 4.531209958130000359e+01 1.578947382209999972e+01 2.515202020869999799e+01 3.583550907530000273e+01 3.392763935650000207e+01 3.351673423700000143e+01 5.856511364350000548e+01 1.322958063860000095e+02 9.710893069249999598e+01 9.612950500600000225e+01 1.162940606339999903e+02 1.610371964509999998e+02 1.967581914709999751e+02 2.231800373999999749e+02 2.249690351379999811e+02 2.726635846540000330e+02 3.322690947329999744e+02 3.455464739630000395e+02 3.635682137330000501e+02 4.122720564200000126e+02 5.534743136340000547e+02 4.976065709119999951e+02 5.139632766739999852e+02 5.389498961049999934e+02 2.956034718930000054e+02 2.656955570240000384e+02 3.610567118669999900e+02 3.168402148509999847e+02 2.887112300029999687e+02 1.105685785489999944e+02 4.037370525320000070e+01 -1.000000000000000000e+01 2.867960856989999741e+01 -3.140917014409999865e+03 -4.137602240320000419e+03 -4.396056917779999822e+03 -4.520847870149999835e+03 -4.327382612289999997e+03 -2.632629002629999832e+03 -2.672029118099999778e+03 -2.362135233529999823e+03 -2.663103053379999892e+03 -2.603649886249999781e+03 -2.493449158330000046e+03 -5.987126484080000637e+02 -1.962641446789999918e+03 -2.178369638969999869e+03 -1.763413084060000074e+03 -1.434920728289999943e+03 -1.205101081699999895e+03 -1.709386039770000025e+03 -2.107361895370000184e+03 -2.334327460470000005e+03 -2.287845437269999820e+03 -2.447530200329999843e+03
-3.907165355640000143e+03 -3.075872488609999891e+03 -2.460036620960000164e+03 -2.293831722020000143e+03 -3.546298363410000093e+03 -4.798645126059999711e+03 -4.521658977150000283e+03 -3.377792322270000113e+03 -2.057617914049999854e+03 -1.089225928639999893e+03 -6.586712421790000462e+02 -1.238389329139999973e+02 -5.433719805520000534e+01 5.250587200670000065e+00 4.476109211220000361e+01 1.481258094449999874e+02 2.462787990070000035e+02 2.442544169079999961e+02 3.064085968840000191e+02 3.892206898280000473e+02 4.385981467400000042e+02 4.722205977919999782e+02 4.464909028760000069e+02 5.242981588769999917e+02 5.244692094160000124e+02 6.179538872440000432e+02 6.410547137730000031e+02 6.774811154300000453e+02 5.977851041719999330e+02 5.477114855490000309e+02 5.288522347089999585e+02 4.710959767340000326e+02 4.590993068650000168e+02 5.006034460330000115e+02 4.555494671530000232e+02 4.397252752090000172e+02 4.445309414269999593e+02 4.329568258850000007e+02 5.033547949040000162e+02 5.265215194439999777e+02 5.597105477919999430e+02 5.272814516780000531e+02 5.605944519759999594e+02 5.931054189559999941e+02 6.407992612159999908e+02 6.794072915350000130e+02 6.906400295380000216e+02 7.063178688030000103e+02 6.152898448180000059e+02 6.103993025459999444e+02 5.735422971010000310e+02 5.681219330940000418e+02 5.187457909580000432e+02 4.877926678050000078e+02 3.674690482610000117e+02 2.160979004980000013e+02 1.795036095129999865e+02 1.271525701300000009e+02 1.025243117050000023e+02 8.501214678069999309e+01 6.908189093139999670e+01 4.293067663849999605e+01 3.735709684350000259e+01 4.394689265140000600e+01 6.445600600810000458e+01 4.984101043239999740e+01 6.807649721359999262e+01 8.166261601029999895e+01 1.080618319299999968e+02 1.202898126340000005e+02 1.132613433470000075e+02 1.285739985090000062e+02 1.697863573669999937e+02 2.986493743859999768e+02 2.777600481489999993e+02 2.998596143970000298e+02 3.446007005419999700e+02 3.961265376850000166e+02 4.063988658840000312e+02 5.249516292859999567e+02 5.788950437040000452e+02 6.345996916899999860e+02 6.622799921509999876e+02 4.049958022110000115e+02 5.033592166889999930e+02 2.491894347459999892e+02 2.892642260309999642e+02 3.309285466910000082e+02 3.257835250520000159e+02 1.051936061389999963e+02 -4.862415896709999963e+00 -3.266789796860000195e+01 -1.171842814710000091e+01 -3.337234224270000141e+03 -3.936118159269999978e+03 -4.295255565190000198e+03 -4.060654097019999881e+03 -3.925254078580000169e+03 -2.087866200899999967e+03 -2.504636433430000125e+03 -2.492032703140000194e+03 -2.371573411119999946e+03 -2.394245667730000150e+03 -2.500935954519999996e+03 -2.521593485140000212e+03 -2.244825771889999942e+03 -1.987002850439999975e+03 -1.976908227209999950e+03 -1.417167050419999896e+03 -1.171621613860000025e+03 -1.772366558639999994e+03 -2.073444873509999979e+03 -2.250774123950000103e+03 -2.353361471879999954e+03 -2.777811286279999877e+03
-3.577339815129999806e+03 -3.938507949020000069e+03 -3.522508083419999821e+03 -2.989898054050000155e+03 -4.100257381409999653e+03 -5.005984581529999559e+03 -4.969174960010000177e+03 -4.573479346609999993e+03 -3.584023378700000194e+03 -2.071233722330000091e+03 -7.071237731600000416e+02 -2.203294039140000109e+02 -5.181643083579999853e+01 1.262040425509999952e+00 5.684440208899999902e+01 1.735210329429999945e+02 2.392048872629999892e+02 2.888130289520000247e+02 3.732411188869999705e+02 3.871689923540000109e+02 4.260907054369999969e+02 6.553718454840000049e+02 5.644879101970000193e+02 5.454782367020000038e+02 6.409150766400000521e+02 6.260913155380000035e+02 5.671393909790000407e+02 5.499281260650000149e+02 5.227498611510000046e+02 5.535592000709999638e+02 5.274856682050000245e+02 5.254991527319999705e+02 4.652020583990000091e+02 4.490273140639999951e+02 4.482029822860000081e+02 4.362945194399999878e+02 4.604077705740000397e+02 4.115836622759999841e+02 4.316181396409999707e+02 4.888480272980000336e+02 4.994540176309999993e+02 5.511908095899999580e+02 5.651296808130000500e+02 6.351785110219999524e+02 7.385648543810000319e+02 7.376032260110000607e+02 6.283961432529999911e+02 5.984234342140000535e+02 5.343482663160000357e+02 5.052833681419999721e+02 4.840252208200000155e+02 4.628118113180000250e+02 4.314060884390000297e+02 3.957709586809999678e+02 3.107383175310000070e+02 2.666351078179999945e+02 1.707021261959999947e+02 1.423432655850000117e+02 1.312070291610000083e+02 1.100124215190000001e+02 8.329269526459999895e+01 6.276655473870000179e+01 4.881356971740000006e+01 6.500520870629999592e+01 8.457348210649999487e+01 7.918213877169999648e+01 6.301780347949999594e+01 6.828994168060000902e+01 9.155799213579999218e+01 1.487043557629999952e+02 1.363525521070000082e+02 1.310747566579999841e+02 1.546453375779999817e+02 1.788055147870000212e+02 3.020996097280000185e+02 3.562556882959999598e+02 2.925707039190000387e+02 3.763258603669999616e+02 4.018089315459999966e+02 5.465706353570000147e+02 5.013653584649999857e+02 8.982924258639999380e+02 4.222250376100000153e+02 2.350446604979999847e+02 1.708039419620000103e+02 1.092815013849999985e+02 2.218600489840000023e+02 3.075556923640000377e+02 2.728941393160000075e+02 1.866726367140000207e+02 -2.482347113920000226e+01 -2.908466255669999967e+01 -6.814594573900000114e+02 -2.393146609129999888e+03 -2.118842009529999814e+03 -3.619095660110000154e+03 -3.774882902620000095e+03 -2.326756000630000017e+03 -1.967807463019999886e+03 -2.201394959799999924e+03 -1.924823348119999991e+03 -2.285157511439999780e+03 -2.462851213609999832e+03 -2.524361014229999910e+03 -2.537955070580000211e+03 -6.612588563240000212e+02 -2.309114533689999917e+03 -2.165096084979999887e+03 -1.631529439240000102e+03 -1.277691414079999959e+03 -1.845719015119999995e+03 -2.002104694059999929e+03 -2.027348831920000066e+03 -1.358867201999999907e+03 -3.563780721080000149e+03
-3.609924303119999877e+03 -4.313669032269999661e+03 -4.712555846209999800e+03 -4.028191346560000056e+03 -4.727332368139999744e+03 -5.058740100150000217e+03 -4.802617572420000215e+03 -5.086882146150000153e+03 -4.831012645230000089e+03 -2.938861884079999982e+03 -1.313204607339999939e+03 -5.588492721190000339e+02 -1.072990308990000017e+02 4.446176351760000500e+01 5.723807529839999830e+01 1.965792942959999721e+02 2.527781879890000027e+02 3.084874687569999878e+02 3.703224104169999578e+02 5.052255699689999915e+02 4.444814683019999961e+02 3.496804743449999933e+02 3.992859592500000190e+02 4.400428026600000067e+02 5.643944018990000586e+02 6.130666579590000538e+02 6.115996805620000032e+02 5.801576191750000362e+02 5.246069835719999901e+02 5.281345339189999777e+02 4.857985702569999944e+02 4.672128022740000119e+02 4.304449758219999467e+02 4.497891480810000076e+02 4.797089462669999875e+02 4.481061738330000139e+02 4.553216058280000311e+02 4.326963819469999635e+02 4.042397699759999909e+02 4.761433188119999613e+02 4.067277171380000027e+02 4.511236655980000023e+02 5.261852642619999187e+02 7.206292530319999514e+02 6.159366600849999713e+02 5.937026100830000814e+02 5.340637075459999323e+02 4.925849746289999871e+02 4.685086418760000129e+02 5.032002602630000183e+02 5.321099851540000145e+02 5.061675310409999611e+02 4.117874112169999421e+02 3.708464253349999922e+02 3.487424397619999468e+02 3.234823395370000298e+02 2.187929789449999873e+02 1.934493908279999914e+02 1.596079937149999921e+02 1.394613138590000005e+02 1.114963423370000015e+02 8.356168216749999544e+01 6.561050073970000085e+01 6.246055669430000279e+01 9.149427684760000545e+01 7.604615763949999518e+01 8.297270509000000516e+01 8.352266850280000199e+01 1.371301467210000169e+02 1.590646986840000068e+02 2.067371289459999844e+02 1.771994143490000226e+02 1.701971775140000034e+02 2.010221164390000013e+02 2.110772636279999972e+02 2.906407174909999753e+02 2.568635133559999986e+02 3.208011755190000258e+02 5.140968556669999998e+02 5.260332942030000822e+02 3.895936670739999954e+02 3.902152650390000304e+02 3.321126492359999816e+02 2.098172376969999959e+02 3.863324403009999628e+02 1.254275832590000022e+02 1.024419957900000071e+02 5.372183865869999408e+02 5.258803248779999961e+01 -2.216863436810000110e+01 -1.992977107589999974e+01 -3.540783387619999871e+02 -4.983756987909999907e+02 -1.203980883910000102e+03 -8.205810614150000220e+02 -1.200582473070000106e+03 -2.884476095550000082e+03 -3.144364645219999943e+02 -2.111851469300000190e+03 -1.661407663949999915e+03 -2.012416036809999923e+03 -2.142471780740000213e+03 -2.434503122590000203e+03 -2.507067282659999819e+03 -2.684716912880000109e+03 -1.908349421910000046e+03 -2.274703995670000040e+03 -1.838600653129999955e+03 -1.574109260160000076e+03 -1.738044681320000109e+03 -1.598606921309999962e+03 -1.874830235359999961e+03 -1.307416480419999971e+03 -2.125271217139999862e+03 -3.583140582720000111e+03
-3.023639602130000185e+03 -4.446699015109999891e+03 -4.478555941100000382e+03 -4.512112985100000515e+03 -5.164750788010000178e+03 -4.617443919699999242e+03 -5.061772453739999946e+03 -5.064973423100000218e+03 -5.036389392850000149e+03 -3.981074445730000207e+03 -1.456378810149999936e+03 -8.987231397619999598e+02 -1.147424514510000080e+02 3.539854443019999763e+01 6.305267546810000567e+01 1.362412362689999838e+02 1.908087099709999848e+02 3.650678560009999956e+02 2.989427135459999931e+02 3.442189376700000025e+02 2.657625925969999798e+02 3.578624375659999828e+02 4.898940006240000002e+02 5.518528891469999280e+02 5.978475691930000266e+02 6.212182882050000217e+02 5.712517721409999467e+02 5.339058025379999890e+02 5.311998426320000135e+02 5.012582773019999536e+02 4.920866011740000090e+02 4.361753524640000137e+02 3.884185111040000038e+02 3.902360762810000097e+02 4.236197828549999826e+02 4.013961386859999720e+02 4.207645983030000139e+02 4.329447010810000052e+02 3.525042303880000532e+02 4.587868966440000236e+02 4.727412066469999559e+02 4.572518843059999654e+02 5.120942101719999755e+02 4.663882642230000215e+02 4.927804145259999586e+02 4.824454930050000030e+02 4.632548150990000408e+02 4.997520595309999862e+02 5.336052720889999819e+02 5.808082510750000438e+02 6.306319078880000006e+02 4.809182550319999905e+02 4.282908805840000355e+02 4.490942286659999922e+02 4.126966996430000449e+02 3.436357328040000425e+02 2.499048712729999977e+02 2.193857382019999989e+02 1.954493434259999844e+02 1.641962945060000152e+02 1.274560604029999951e+02 1.057290343339999907e+02 8.536480394739999156e+01 7.031810497210000221e+01 9.078885228850000999e+01 9.074228914850000649e+01 1.189583830189999958e+02 9.107740591290000509e+01 1.054104250129999940e+02 1.866207954490000134e+02 1.641275937639999825e+02 2.113342024799999876e+02 1.594660431989999836e+02 1.923696512009999822e+02 2.136912245350000035e+02 2.171924250600000050e+02 2.628455307520000019e+02 3.358700322669999991e+02 4.810311650930000269e+02 4.623653322430000117e+02 4.556285036519999494e+02 2.580727713499999822e+02 2.343018170879999786e+02 3.125844760020000308e+02 2.052419848170000023e+02 1.231444818700000070e+02 2.067780480769999940e+02 4.530651523540000447e+00 -5.267933743979999583e+00 -2.163745042320000067e+01 -4.609534853259999920e+01 -2.701147335229999840e+02 -2.434324627899999882e+02 -3.754304465899999741e+02 -4.360783630269999662e+02 -1.129543422109999938e+03 -3.314993330159999914e+03 -1.790509105560000080e+03 -2.470175180289999844e+03 -1.913177172539999901e+03 -2.059835524139999961e+03 -2.122764956829999846e+03 -2.484676088539999910e+03 -2.560794528880000144e+03 -2.419079993070000000e+03 -5.414779355419999547e+02 -2.088764326890000120e+03 -2.164638759120000032e+03 -1.863652139719999923e+03 -1.216158577169999944e+03 -1.315257653639999944e+03 -1.016931828020000012e+03 -1.039018050559999892e+03 -3.338433906469999783e+03 -3.733004940010000155e+03
-3.930942595569999867e+03 -4.044930945409999822e+03 -3.455688374339999882e+03 -4.882915006479999647e+03 -5.052644251079999776e+03 -4.994057436150000285e+03 -5.093509750729999723e+03 -5.039064877740000156e+03 -5.052971370029999889e+03 -4.709336532090000219e+03 -2.942506460330000209e+03 -1.299546283440000025e+03 -2.147737538940000093e+02 4.285162157639999947e+01 2.399692808869999894e+01 7.023199190600000463e+01 1.168034709220000025e+02 1.716745514769999943e+02 1.770351553320000164e+02 2.657744572569999946e+02 5.536028163240000595e+02 5.224330255569999508e+02 5.941089255969999385e+02 9.374954705850000209e+02 6.790752257359999930e+02 5.101691758950000235e+02 5.195286544460000187e+02 5.578095515229999819e+02 5.333312103669999260e+02 4.310454807309999978e+02 4.113705650190000256e+02 3.281574899309999864e+02 4.137087082380000425e+02 3.828109494749999726e+02 4.144426310619999754e+02 4.010497628809999924e+02 4.076987125080000283e+02 4.074000448219999839e+02 3.490385400339999933e+02 4.457889330300000097e+02 4.786181035040000324e+02 4.209868462669999758e+02 4.521442056059999572e+02 4.867913329400000180e+02 5.504265908490000356e+02 5.268023655279999957e+02 5.788059819100000141e+02 6.305388015009999663e+02 7.264662694969999848e+02 7.577515913339999543e+02 7.220724188780000077e+02 6.074000393119999899e+02 6.155460438520000253e+02 5.838406168440000101e+02 4.897953868980000038e+02 3.459184461959999908e+02 3.595162140059999842e+02 2.672531955050000079e+02 2.299636022759999889e+02 1.800874478540000041e+02 1.519136843969999973e+02 1.262128388179999945e+02 1.083509926810000081e+02 9.204915961180000750e+01 1.186844416479999893e+02 1.018237468239999970e+02 1.232844647489999943e+02 1.196674923789999951e+02 9.786124814000000072e+01 1.900472445249999964e+02 2.151058073600000000e+02 2.421329120690000138e+02 1.906237799520000067e+02 1.835694154309999817e+02 2.123018788679999886e+02 2.474347633069999972e+02 2.716393060820000187e+02 3.155595890650000115e+02 3.451977527559999999e+02 3.450430027790000054e+02 4.344766567500000178e+02 2.919357978250000087e+02 1.906011044029999937e+02 1.788949331379999990e+02 1.317184258320000083e+02 8.846672703909999314e+01 6.717790465689999735e+01 1.987145050990000072e+01 -2.391726275630000131e+01 -1.993930290619999823e+01 -7.318431760020000354e+01 -9.306535575200000210e+01 -7.350472350399999755e+01 -3.910171758050000221e+02 -3.690088598030000071e+02 -1.134833701790000077e+03 -3.295181899359999989e+03 -2.921534712260000106e+03 -1.529029382930000111e+03 -1.818553426129999934e+03 -1.719970772910000051e+03 -1.624896733009999934e+03 -2.240533794169999965e+03 -2.506696562690000064e+03 -2.372214040800000475e+03 -1.108680211280000094e+03 -1.821164185400000179e+03 -2.057543929320000188e+03 -1.051050840979999975e+03 -1.239143779799999947e+03 -1.166585678680000001e+03 -1.055278561320000108e+02 -2.588253548910000063e+03 -3.711370238470000004e+03 -3.444131390869999905e+03
-5.018674619190000158e+03 -4.700969025739999779e+03 -4.876294619129999774e+03 -5.004347708459999922e+03 -5.005282075500000246e+03 -4.514414521749999949e+03 -5.130640120959999877e+03 -5.060289744810000229e+03 -5.048326575140000386e+03 -4.718088789819999874e+03 -2.985273741429999973e+03 -1.495912477619999891e+03 -3.557054075510000075e+02 -1.178476751300000025e+01 4.449816169170000002e+00 3.682106489270000083e+01 1.382231200920000163e+02 1.504553384360000052e+02 2.668023761670000340e+02 5.378171426830000428e+02 5.305938805639999600e+02 8.166161020989999315e+02 8.868283451569999443e+02 6.574112853269999732e+02 5.092509168259999797e+02 4.449719526850000193e+02 4.426654369230000157e+02 5.402590124160000187e+02 4.528094229199999745e+02 4.392685061169999585e+02 3.573881496130000528e+02 3.442921392240000387e+02 3.553932456530000081e+02 3.693029487230000427e+02 3.761153468980000412e+02 3.833752871730000038e+02 3.923029777540000396e+02 3.769284610959999782e+02 3.713288341019999734e+02 3.789620314690000100e+02 3.756553549930000031e+02 4.270780602130000148e+02 4.453971692959999586e+02 4.206082783669999685e+02 4.700213033269999414e+02 5.845802163710000059e+02 5.944194834080000192e+02 6.171858237090000330e+02 6.703548112000000856e+02 9.549984450239999205e+02 8.167309208639999270e+02 8.059480064339999217e+02 9.169542500169999357e+02 7.790461338539998906e+02 6.539647371219999741e+02 5.502874246310000217e+02 4.726676481769999896e+02 3.323100495310000042e+02 2.781382608259999643e+02 2.201793209970000191e+02 1.828274013870000090e+02 1.716077507939999975e+02 1.600775263490000100e+02 1.136730515229999980e+02 1.346300378470000112e+02 1.137324975089999981e+02 1.357582848689999935e+02 1.311998844860000020e+02 1.162566049000000135e+02 1.285542420989999925e+02 2.169741822059999947e+02 2.402677105900000072e+02 2.494938484570000128e+02 2.373879308029999891e+02 2.189807460179999907e+02 2.126267214840000292e+02 2.404732732859999942e+02 3.320463490779999916e+02 4.235997745959999747e+02 3.151558074559999909e+02 3.501437483349999980e+02 3.068771544190000213e+02 2.930486099620000005e+02 1.939143804659999830e+02 2.543526293150000015e+02 6.246666338510000571e+01 1.764874884710000202e+01 2.485878107979999996e+01 -3.590231535520000250e+01 -5.487889083100000676e+01 -7.775751512569999591e+01 -5.288405323569999439e+01 -6.818622269300000482e+01 -2.235204731490000256e+02 -4.544820807899999977e+02 -1.544117359719999968e+03 -3.290496793220000200e+03 -3.488986444799999845e+03 -2.970585291979999965e+03 -8.729148943599999484e+02 -1.008142582879999964e+03 -1.337492707639999935e+03 -1.046030393080000067e+03 -1.117668761679999989e+03 -2.900106556490000003e+02 -6.403124812350000639e+01 -1.766037731410000106e+03 -2.066839051380000001e+03 -1.151785806950000051e+03 -5.988147120060000361e+02 -5.656985202240000490e+02 -1.681899084529999982e+03 -3.478706849159999820e+03 -3.600647007779999967e+03 -3.573880962409999938e+03
-4.860537502369999856e+03 -5.027834628079999675e+03 -5.012164914339999996e+03 -4.150428543140000329e+03 -5.069358362580000176e+03 -5.094059756700000435e+03 -5.058661257660000047e+03 -5.065065126829999826e+03 -4.907975858300000255e+03 -2.815695317140000043e+03 -2.522797797629999877e+03 -1.319451382870000089e+03 -1.073568168450000030e+03 -4.064992590860000377e+01 -1.494756534979999962e+01 9.293698901950000035e+00 7.291472424840000599e+01 1.606223487960000114e+02 5.018524550050000244e+02 5.298490024369999674e+02 6.546663494169999922e+02 5.337979401039999630e+02 4.154700857249999899e+02 4.134584004159999608e+02 4.187042425189999904e+02 4.877166705700000193e+02 4.878214096280000263e+02 4.469886022309999589e+02 4.488249776269999529e+02 4.193528331290000324e+02 3.589068368250000276e+02 3.102450381799999946e+02 2.871608228029999736e+02 3.465401205140000229e+02 3.763851233099999831e+02 3.453616992450000112e+02 3.420514466239999933e+02 3.803893039730000396e+02 3.638673892699999897e+02 4.252239465309999673e+02 4.256968630719999851e+02 3.990767062300000134e+02 4.464928066619999640e+02 4.352412508969999863e+02 4.266421657919999575e+02 4.788776721739999971e+02 5.197132112670000197e+02 5.628717963349999991e+02 5.861737641490000215e+02 5.739542578830000821e+02 5.949622710119999738e+02 5.755897820719999345e+02 6.191258338580000782e+02 7.054263004919999958e+02 7.485075080830000616e+02 7.245817862400000422e+02 6.584162557669999387e+02 3.864785120509999956e+02 3.087361814199999799e+02 2.510549733059999937e+02 2.289083975740000199e+02 1.863420277309999733e+02 2.150762296309999897e+02 1.505605570289999946e+02 1.310540676070000075e+02 1.335816621049999924e+02 1.510249278910000044e+02 1.680734460250000097e+02 1.725437500799999953e+02 1.283504320629999995e+02 1.579828697289999866e+02 2.650525701770000069e+02 3.196662234699999772e+02 2.357794408030000000e+02 2.462421417429999906e+02 2.029322403150000014e+02 2.328563757450000082e+02 3.088290583630000015e+02 3.537108202930000402e+02 2.449379010190000088e+02 2.729679980399999977e+02 3.036084958449999931e+02 3.791423614480000310e+02 1.656601811620000149e+02 1.299715998759999991e+02 8.301834331729999406e+01 -1.860713081729999718e+00 -2.168313930349999907e+01 -5.809253580979999754e+01 -5.693464109789999839e+01 -3.644892638440000354e+01 -5.000000000000000000e+00 -1.142072708720000094e+02 -3.417293271649999724e+02 -1.314711908699999867e+02 -1.348721137239999962e+03 -3.119482910239999910e+03 -3.292577018020000196e+03 -2.465442021249999925e+03 -1.784362226850000070e+03 -2.094037495959999887e+03 -1.903272412700000132e+03 -1.035719570499999918e+03 -1.076362505900000087e+03 -3.350899102870000235e+01 -7.110716312239999581e+01 -1.992826144000000113e+03 -1.983790294599999925e+03 -1.317826632640000071e+03 -6.836849286350000909e+01 -1.679897891379999919e+03 -3.428109802609999861e+03 -3.588810223070000120e+03 -3.520727126820000194e+03 -3.637901422420000017e+03
-5.179005821050000122e+03 -5.151929255789999843e+03 -5.033385485980000340e+03 -5.016162972109999828e+03 -4.763256237759999749e+03 -4.947358510490000299e+03 -4.697038135849999890e+03 -2.936048582840000108e+03 -1.457187564549999934e+03 -1.509452175169999919e+03 -1.430987101220000113e+03 -1.313847693939999999e+03 -1.000086008419999985e+03 -3.120024632170000132e+02 -1.060992519790000017e+02 -4.688630950800000363e+01 1.654941320600000054e+01 1.461519337170000199e+02 2.843707690620000221e+02 3.035328519709999568e+02 3.913834778440000264e+02 4.193192486559999566e+02 3.441868585880000069e+02 3.627400796069999842e+02 3.804708190399999808e+02 4.418158472019999863e+02 4.423437841769999750e+02 3.873155387599999813e+02 3.794825216430000410e+02 3.702857979759999694e+02 2.862774153490000231e+02 2.509367974459999857e+02 3.332495007779999696e+02 2.988493921799999953e+02 3.139697030130000144e+02 3.561331660289999945e+02 3.441372436330000255e+02 3.794578838310000037e+02 3.777996435790000191e+02 4.378899336990000393e+02 4.364803870280000524e+02 3.877527464919999716e+02 3.669058940499999721e+02 3.610633963309999785e+02 3.824276987449999865e+02 4.323755772339999908e+02 5.038900595430000067e+02 5.503271909259999575e+02 6.448321640699999762e+02 5.669479025050000018e+02 5.656951176259999556e+02 6.022823832269999684e+02 6.554130637719999868e+02 6.087015031839999892e+02 5.913468090139999731e+02 5.575798073839999915e+02 5.037536616360000039e+02 4.521684055449999846e+02 4.170349024119999513e+02 2.659122308970000290e+02 2.433453494000000035e+02 2.565601023820000250e+02 1.793484905480000009e+02 1.663655221200000085e+02 1.971147610670000176e+02 2.272536356299999909e+02 1.958397711240000092e+02 1.869410777990000270e+02 2.496994368229999850e+02 1.863917235499999947e+02 2.013775010240000256e+02 1.815116589820000002e+02 1.848146958570000038e+02 2.444345261770000093e+02 2.572658906249999973e+02 2.302971932159999824e+02 2.397926170559999832e+02 3.314476906279999753e+02 2.911105075460000080e+02 2.221180182390000084e+02 2.087998675059999982e+02 2.193024039559999778e+02 2.502425231969999970e+02 2.443067727070000217e+02 1.667036743369999954e+02 2.661359985880000067e+01 -1.828173986910000082e+01 -7.012794734539999908e+00 -7.439714207020000458e+01 -1.971497252210000184e+01 -4.952223561309999411e+00 -5.000000000000000000e+00 -1.120536972560000066e+02 -3.433069339799999966e+02 -1.122002582809999922e+03 -1.930306795089999923e+03 -3.110095964109999841e+03 -3.138036642340000071e+03 -1.393618426439999894e+03 -2.188472300880000148e+03 -2.069059037120000085e+03 -1.804844285140000011e+03 -2.132667239219999828e+03 -2.191532627229999889e+03 -1.548248936629999889e+03 -1.125572716619999937e+03 -2.461598584840000058e+03 -2.020851142609999897e+03 -5.105911933509999585e+02 -2.156882770640000217e+03 -2.509835654089999935e+03 -3.483146170999999867e+03 -3.545579555979999895e+03 -3.458901761520000036e+03 -1.972658330490000026e+03
-5.216289490619999924e+03 -4.969328062800000225e+03 -4.375300332329999947e+03 -5.403117929580000236e+03 -4.370028806010000153e+03 -3.284621739969999908e+03 -2.333464521270000205e+03 -1.597151850319999994e+03 -1.466594619859999966e+03 -1.100884255089999897e+03 -8.913825282330000164e+02 -1.073986139619999904e+03 -1.154237352540000074e+03 -6.857735022560000289e+02 -1.140234248789999896e+02 -7.477186355089999736e+00 -3.865899227420000273e+01 5.727268435739999575e+01 1.689259682750000024e+02 1.263209427120000043e+02 1.767806884909999781e+02 2.531527729740000154e+02 2.242829714599999988e+02 3.488150076599999920e+02 3.169976936190000174e+02 4.039478718459999982e+02 3.763201175909999847e+02 3.118548665079999864e+02 3.076773397779999755e+02 2.901634926890000088e+02 2.457188013049999995e+02 2.574967981839999993e+02 3.075055572480000023e+02 3.220811103190000040e+02 3.331233170990000190e+02 3.435488584340000102e+02 3.426743413730000043e+02 3.544629768430000354e+02 3.406355391529999679e+02 3.665701197719999413e+02 4.187978922400000101e+02 4.249930453499999885e+02 3.763403093850000118e+02 3.704148450659999980e+02 3.850583248430000367e+02 4.561388984359999768e+02 5.247075183350000316e+02 6.527386928350000517e+02 6.774941939990000037e+02 6.778404244729999846e+02 6.674748789909999687e+02 7.658892412049999621e+02 5.905749980019999157e+02 5.406141819810000015e+02 5.536906359490000114e+02 4.924115694540000163e+02 4.334414054219999457e+02 3.839445075819999715e+02 3.424212211540000226e+02 2.573065082649999908e+02 2.201266633250000098e+02 1.888250056140000197e+02 1.755766473190000170e+02 1.639727120889999981e+02 2.420376667769999983e+02 2.627196021870000209e+02 2.292971881890000247e+02 2.679275328290000289e+02 2.639922626549999904e+02 2.745056842090000373e+02 2.654983202170000141e+02 1.815828791909999893e+02 2.073469535690000214e+02 2.509935366609999789e+02 2.596572852969999872e+02 2.731353736220000314e+02 2.888657501760000059e+02 2.861625634499999933e+02 2.968754211780000105e+02 2.625423647620000338e+02 2.008609112620000019e+02 2.235001165749999927e+02 2.980270147499999780e+02 3.032143743579999864e+02 2.248346406540000260e+02 -4.643645639219999843e-01 -2.424742447539999901e+01 -5.084939948220000616e+01 -1.390003673849999899e+01 -9.000000000000000000e+00 -1.266444074099999817e+01 -6.755484159349999018e+00 -2.265912852099999952e+02 -5.004869989580000151e+02 -1.612811128320000080e+03 -1.596073982560000104e+03 -1.181727353689999973e+03 -3.153589273090000006e+03 -3.058646664880000117e+03 -2.345842719260000194e+03 -2.802642325660000097e+03 -2.156896612619999814e+03 -2.036474127499999895e+03 -2.407859111700000085e+03 -1.438663387049999983e+03 -4.651426203979999485e+01 -2.421402879130000201e+03 -2.401751670860000104e+03 -2.675180228839999927e+03 -3.022431815890000053e+03 -3.566880088119999982e+03 -3.600309355399999731e+03 -3.614546027880000111e+03 -3.358505352010000024e+03 -2.925322548720000100e+02
-5.277098835540000437e+03 -5.043458273010000084e+03 -4.775900729189999765e+03 -4.019848552850000033e+03 -4.076422852489999968e+03 -3.765262785240000085e+03 -2.225440185060000204e+03 -2.019201842720000059e+03 -1.549172960260000082e+03 -9.730709365739999157e+02 -7.519165918289999127e+02 -1.027132389090000061e+03 -1.153571160409999948e+03 -1.098135297499999979e+03 -1.418068895039999973e+02 -2.845866656870000000e+01 -3.485949766280000262e+01 -7.440206586110000408e+00 4.071855012780000393e+00 4.592940220940000096e+00 2.355913436959999885e+01 6.015062400629999928e+01 1.381444384600000035e+02 1.321304392399999870e+02 2.432775741650000043e+02 2.485806319940000151e+02 2.400196935570000107e+02 2.702731288440000412e+02 2.490732769109999936e+02 2.412911708009999927e+02 2.994817115809999564e+02 2.817506608129999677e+02 3.077600948809999863e+02 2.996426777739999920e+02 2.687415922559999899e+02 3.008537112889999889e+02 3.000490575210000088e+02 3.447515601709999942e+02 3.410560246729999676e+02 4.321655560919999743e+02 3.911125790500000221e+02 4.301552378999999746e+02 3.470196285299999772e+02 3.930252897759999655e+02 4.360645103380000478e+02 4.159786835140000107e+02 4.875803601399999820e+02 5.114346193359999688e+02 5.306708419909999748e+02 5.543600442519999660e+02 5.640263657560000183e+02 5.725001263670000071e+02 5.151724463540000443e+02 4.803039920440000401e+02 4.911800517030000037e+02 5.209960987910000085e+02 4.036711143390000416e+02 3.533687711869999930e+02 3.158831167989999926e+02 2.867399312019999797e+02 2.709131463879999728e+02 2.618442114620000325e+02 1.800443078829999877e+02 1.913105158940000194e+02 2.687701708190000431e+02 3.303280911819999801e+02 2.786303205969999794e+02 3.468046526990000302e+02 2.362866633470000011e+02 2.377338037499999928e+02 2.097229981709999720e+02 1.980448701309999819e+02 2.337314603109999780e+02 2.720680650529999980e+02 2.775954011229999878e+02 3.239498064229999841e+02 3.334874443179999730e+02 3.786740466910000009e+02 3.258849765310000066e+02 2.307017229090000114e+02 1.718029132640000114e+02 2.997766440409999973e+02 3.093339412280000147e+02 5.872037312979999797e+02 9.536847916729999497e+01 -5.000000000000000000e+00 -3.201454033270000110e+01 -1.904750352510000155e+01 -1.100000000000000000e+01 -3.471095177440000157e+01 -1.311895739649999939e+02 -1.688778792779999947e+02 -2.813728851980000059e+02 -6.396405933369999275e+02 -1.827470702480000000e+03 -2.440170919340000182e+03 -3.055060887380000167e+03 -3.216950402169999961e+03 -3.176768659679999928e+03 -3.147631607079999867e+03 -3.055447929139999815e+03 -2.836704575509999813e+03 -2.572288335249999818e+03 -2.630567386889999852e+03 -3.564516201869999890e+01 -3.185855141499999945e+02 -2.369186272420000023e+03 -1.055257592550000027e+03 -6.715271665290000556e+02 -3.301095882959999926e+03 -3.306597919650000222e+03 -3.407510855370000172e+03 -2.760764354479999838e+03 -2.809156748769999922e+03 -1.854738851099999764e+01
-5.493374508699999751e+03 -5.358788736980000067e+03 -4.587687813819999974e+03 -4.277271433500000057e+03 -3.978885634539999955e+03 -3.756657955229999970e+03 -2.953586935900000299e+03 -2.390283982970000125e+03 -1.919705254819999936e+03 -1.411965287960000069e+03 -1.057562347869999940e+03 -1.042976687399999946e+03 -1.062295274340000105e+03 -1.275354467590000013e+03 -9.405099476060000825e+02 -6.472719988629999932e+01 -5.930037091869999699e+01 -4.603684344699999542e+01 -2.006524068539999917e+01 -2.144519752689999947e+01 -1.241743528699999999e+01 9.844775884829999768e+00 3.639517388499999839e+01 4.747374355790000067e+01 6.387845954910000046e+01 1.271062292720000073e+02 1.393114276879999807e+02 2.134763665779999826e+02 2.655468457499999886e+02 2.692033988160000035e+02 2.574708757849999756e+02 2.311164235550000114e+02 2.739323480850000010e+02 3.206889793290000057e+02 2.832936805620000200e+02 3.064068811019999998e+02 3.068079712210000025e+02 3.468023621390000244e+02 3.170713050150000072e+02 3.998293778799999814e+02 3.329216565030000083e+02 4.471995004119999635e+02 3.854473644500000091e+02 3.326055601260000003e+02 3.808393632730000036e+02 4.245813624330000380e+02 4.223282275299999924e+02 4.248155188959999577e+02 4.485013596990000337e+02 4.730844247380000525e+02 4.993610882080000124e+02 4.718055969640000171e+02 4.684758453830000349e+02 4.793376444240000183e+02 4.426661778690000233e+02 4.254997366130000387e+02 4.584769868340000016e+02 3.611744869069999595e+02 2.932961224779999725e+02 2.877507726709999929e+02 2.415535162390000039e+02 2.481698049090000211e+02 1.888394058640000139e+02 2.100500711520000152e+02 2.840753787689999967e+02 4.733768138609999596e+02 3.240220253079999679e+02 3.689975811850000014e+02 1.929642635929999983e+02 1.617021596579999994e+02 1.597256374879999896e+02 1.533359751200000005e+02 2.005332803540000270e+02 2.571621981810000079e+02 2.624046240069999953e+02 4.562980786790000138e+02 4.314885577640000065e+02 4.306414164859999687e+02 2.884414516599999843e+02 2.355732912949999900e+02 2.592261989699999845e+02 3.029202175839999995e+02 1.621402869460000034e+02 5.142817033500000434e+02 -5.895959555419999276e+00 -3.097939475429999945e+01 -4.950728895979999322e+01 -2.996383239960000111e+01 -3.736167267689999960e+01 -2.480200083209999775e+02 -2.046362003220000076e+02 -2.662841944940000189e+02 -1.713081630599999983e+02 -9.649349696699999868e+02 -1.930839155999999775e+03 -2.431299273619999894e+03 -2.881112742989999788e+03 -3.245636767439999858e+03 -3.197783789479999996e+03 -3.143879758969999784e+03 -2.176996094910000011e+03 -2.928375282940000034e+03 -2.402668406339999819e+03 -2.835345533369999885e+03 -2.706264492320000045e+03 -1.684319469179999942e+02 -2.833358529529999942e+03 -2.905963063719999809e+03 -2.490952846789999967e+03 -3.115825031490000129e+03 -2.565995696850000058e+03 -2.894756245940000099e+03 -1.956256617470000037e+03 -2.906893159069999911e+03 -3.181488193309999701e+02
-5.740842335520000233e+03 -5.667936203569999634e+03 -5.331995661390000350e+03 -4.740572179380000307e+03 -4.152802287190000243e+03 -4.550466190129999632e+03 -3.119470912880000014e+03 -2.595905864190000102e+03 -2.270066325119999874e+03 -1.823058943499999941e+03 -1.303453324849999944e+03 -1.149635158869999941e+03 -1.147388308599999846e+03 -1.432678308620000053e+03 -1.315947599090000040e+03 -2.384898206790000188e+02 -1.135553341179999904e+02 -6.199194233220000427e+01 -7.079001210079999851e+01 -5.064141345720000231e+01 -4.251671861879999881e+01 -2.390653255480000183e+01 -1.426065225419999916e+00 7.304218356089999808e+00 2.905293401460000169e+01 8.139752361909999934e+01 1.368857233220000182e+02 1.874505122609999717e+02 1.833790871150000044e+02 2.108825590700000134e+02 2.043374298209999722e+02 2.591710370060000059e+02 2.486849221580000062e+02 2.682705330129999766e+02 3.120307345240000245e+02 2.958113335450000250e+02 3.274952673640000285e+02 2.856174703689999888e+02 3.139170380440000372e+02 3.723079363530000023e+02 3.251042616809999686e+02 3.382378041329999974e+02 3.767916563599999904e+02 3.500488886260000072e+02 3.439433904759999905e+02 3.414173268840000333e+02 3.531427206809999575e+02 3.759259456680000540e+02 4.004483187590000171e+02 4.299436803059999761e+02 4.186776647230000208e+02 4.285592805059999932e+02 4.146774747530000127e+02 3.983836610559999940e+02 3.703834893439999973e+02 4.274876145439999959e+02 3.956213517869999805e+02 3.695557629580000025e+02 2.731612428779999959e+02 2.745908089509999854e+02 2.496230509940000104e+02 2.031715492340000253e+02 2.256999713140000097e+02 2.387286769590000119e+02 3.254880306539999992e+02 4.180940957990000015e+02 5.253226805350000177e+02 2.003042565370000148e+02 1.429400316589999989e+02 1.195377864400000050e+02 1.481925882159999901e+02 1.565340430439999864e+02 1.951800349879999885e+02 2.663845223729999816e+02 3.932045362540000042e+02 4.695624910330000148e+02 7.297899676900000259e+02 4.413466534240000101e+02 3.165833810889999995e+02 3.457518246040000349e+02 2.304282855950000055e+02 7.454717240760000152e+01 1.227865526729999885e+02 3.446533072020000077e+01 -1.526726273829999947e+01 -3.659731998150000010e+01 -7.207342477969999273e+00 -4.129841524009999887e+01 -1.335627738969999996e+02 -3.119507383989999880e+02 -3.242987876729999925e+02 -2.040919026090000159e+02 -4.979558081540000103e+02 -1.317914072609999948e+03 -1.915528049649999957e+03 -2.445668054339999799e+03 -2.867296691659999851e+03 -3.051433886440000151e+03 -3.181138885880000089e+03 -3.143941921369999818e+03 -2.229199991829999817e+03 -2.309942360129999997e+03 -2.657511818009999843e+03 -2.937790188460000081e+03 -3.570788387919999877e+03 -1.449115839110000024e+03 -3.847569529270000203e+03 -3.962898315259999890e+03 -3.746938446459999795e+03 -2.635434621819999848e+03 -2.904037957430000006e+03 -2.973879579989999911e+03 -4.077064612440000019e+03 -3.653871728489999896e+03 -2.785554385899999943e+03
-5.617749881169999753e+03 -5.409231497300000228e+03 -5.247709781909999947e+03 -5.057578546300000198e+03 -4.634959693320000042e+03 -4.017475946619999831e+03 -4.637391200240000217e+03 -4.295697793469999851e+03 -3.219633313920000091e+03 -2.279130651819999912e+03 -1.518306105059999936e+03 -1.345316686330000039e+03 -1.384150994739999987e+03 -1.582024912849999964e+03 -1.539723888949999946e+03 -7.055406825869999921e+02 -2.630181470210000043e+02 -1.506866045369999938e+02 -1.088213484079999915e+02 -8.632435432750000359e+01 -6.889442406960000653e+01 -4.694553580199999487e+01 -2.700947092409999684e+01 -1.990834959989999930e+01 -2.258018038089999990e+01 -1.240419078460000080e+01 1.089482314179999989e+01 1.767691548699999871e+01 6.538936690920000672e+01 8.099323194939999837e+01 9.826078482360000521e+01 1.526889662199999975e+02 2.388754380520000211e+02 2.428897172770000168e+02 2.549968788019999977e+02 2.055100100299999895e+02 2.796461878840000281e+02 2.500489215780000052e+02 3.044349922449999895e+02 2.874804218770000261e+02 2.821946522860000073e+02 4.113027042140000162e+02 3.558545115539999983e+02 4.112334199619999708e+02 4.204090291399999728e+02 3.439394873260000054e+02 3.477367173860000094e+02 3.689115296140000169e+02 3.943524925230000235e+02 3.654218204459999697e+02 4.279115095159999669e+02 3.534802849440000045e+02 3.686139365690000318e+02 3.302751891990000104e+02 3.575916549410000016e+02 3.734656097650000106e+02 3.162597703890000389e+02 2.731208909009999957e+02 2.535558009079999806e+02 2.918232926539999994e+02 2.178567584909999937e+02 2.044150798520000194e+02 2.169762834040000143e+02 2.657378752409999834e+02 3.337129984359999639e+02 3.447110743790000242e+02 2.370979237340000054e+02 1.477795926529999804e+02 1.208410250390000016e+02 9.610357103920000554e+01 1.262343025379999943e+02 1.724277581470000200e+02 2.606067690709999738e+02 3.510548347259999673e+02 5.836247296860000233e+02 8.679591366270000208e+02 7.635868074610000349e+02 5.472262983389999818e+02 3.430223214420000204e+02 2.788839243709999778e+02 1.769376852670000062e+02 2.596689811650000124e+01 -5.002684566120000120e+00 -2.796595918030000050e+01 -6.476574878959999637e+01 -5.116648804869999623e+01 -3.667600754029999877e+01 -2.629596306230000096e+02 -5.085787916559999644e+02 -5.478400285269999586e+02 -2.389548523090000174e+02 -4.529102502309999636e+02 -3.718930962390000161e+01 -1.535406682419999925e+03 -2.184483085490000121e+03 -2.342823502769999777e+03 -2.887788231429999996e+03 -2.517006009249999806e+03 -2.521894524310000179e+03 -2.090907740269999977e+03 -2.163193170229999851e+03 -2.608963750469999923e+03 -3.049719462030000159e+03 -3.349859487610000087e+03 -3.571645266810000066e+03 -3.474110425410000062e+03 -2.658473491079999803e+03 -4.191327181429999655e+03 -4.056126519960000223e+03 -3.451591245569999955e+03 -2.729258690130000105e+03 -3.296758942079999997e+03 -4.059571585069999855e+03 -3.910025195489999987e+03 -3.539657232680000106e+03
-5.509487240999999813e+03 -5.551810577129999729e+03 -5.438802870780000376e+03 -5.386858475140000337e+03 -5.122232400249999955e+03 -4.520214635999999700e+03 -5.041087996029999886e+03 -4.878951943969999775e+03 -4.671374722040000051e+03 -2.601086418020000110e+03 -1.474503129630000103e+03 -1.457644704620000084e+03 -1.473153216930000099e+03 -1.722249594489999936e+03 -1.734281163370000058e+03 -1.395520192369999904e+03 -6.190336302179999848e+02 -3.829932394659999773e+02 -3.110084088319999864e+02 -1.527550671379999869e+02 -1.227901977650000021e+02 -8.896991787940000052e+01 -7.690625242520000882e+01 -5.866981136329999913e+01 -4.733341642779999603e+01 -4.085783448669999984e+01 -2.266516749300000200e+01 2.099491002970000242e+00 8.027843274369999449e+01 8.410408661179999967e+01 1.005048026949999951e+02 1.461998451370000112e+02 1.251320838210000090e+02 1.839785153249999894e+02 1.527551228529999889e+02 1.764514733050000075e+02 2.035059516759999951e+02 2.525187122199999976e+02 2.681669190050000111e+02 3.208034422719999839e+02 2.938498747130000197e+02 3.507089475600000128e+02 4.113441607699999736e+02 3.986129356249999773e+02 4.275159877759999745e+02 4.213657771910000065e+02 3.210112109429999805e+02 3.931615812019999794e+02 3.171189077930000053e+02 3.120515458200000012e+02 3.142065554940000425e+02 2.760386228540000388e+02 3.262121277250000162e+02 2.940551370059999954e+02 3.504243710060000012e+02 3.308122225949999802e+02 2.635573390159999576e+02 2.506956642549999970e+02 2.458336402159999921e+02 2.587666896829999814e+02 2.359457422370000188e+02 2.422015922399999965e+02 2.401337061590000133e+02 3.266598841329999914e+02 3.445518047009999805e+02 3.312087762340000268e+02 1.655178267370000071e+02 1.321407872689999863e+02 8.744330833219999022e+01 9.135078358950001132e+01 1.251317763050000025e+02 1.856102404709999973e+02 2.868439437760000033e+02 4.790563569769999503e+02 8.888292179899999610e+02 9.413386983999998847e+02 6.062751977469999929e+02 4.471873828750000257e+02 3.405886439519999840e+02 3.737649577560000012e+02 6.873165495489999444e+01 -4.976151497660000089e+00 -2.200929893260000370e+01 -3.035690658659999741e+01 -4.387630272989999725e+01 -4.449473775949999776e+01 -4.228417262290000167e+02 -5.570446844819999797e+02 -8.281329934510000612e+02 -1.209885657249999895e+03 -1.677524401799999850e+03 -1.164735353700000132e+03 -1.326847771420000072e+03 -2.145073101989999941e+03 -2.201039872809999906e+03 -2.321775281390000146e+03 -2.484790015699999913e+03 -2.109926746210000147e+03 -2.032944652910000059e+03 -1.951663037080000095e+03 -1.777185504649999984e+03 -2.687210058080000181e+03 -3.033410124479999922e+03 -3.327635683949999930e+03 -3.570549899969999842e+03 -3.438068364969999948e+03 -1.575536141809999890e+03 -4.098032147699999769e+03 -4.127662248970000292e+03 -4.251131192480000209e+03 -4.364287390589999632e+03 -4.482614719829999558e+03 -4.893891252620000159e+03 -4.530736316329999681e+03 -3.955890683690000060e+03
-5.445860361740000371e+03 -5.619011100399999123e+03 -5.434265282520000255e+03 -5.328073430950000329e+03 -5.360872212799999943e+03 -5.094893239220000396e+03 -5.074177716800000780e+03 -5.112457013360000019e+03 -4.594037801380000019e+03 -3.237217024059999858e+03 -1.824888538659999995e+03 -1.971361445920000051e+03 -1.592510694040000089e+03 -1.962792945830000008e+03 -1.757844777739999927e+03 -1.489994607480000013e+03 -1.287349891260000049e+03 -1.016306387070000028e+03 -7.575767640950000441e+02 -4.013127297139999996e+02 -1.999505269390000137e+02 -1.404160064889999830e+02 -1.138741874129999871e+02 -1.049213046379999952e+02 -6.737882172020000837e+01 -3.603712493760000513e+01 -4.174189548959999740e+01 -1.495958453099999907e+01 6.598126217339999755e+01 1.548207503099999940e+02 2.109199234879999949e+02 1.728793769690000204e+02 1.635656306669999935e+02 1.557130687039999941e+02 2.225125031780000029e+02 2.114699181320000037e+02 2.358723305209999808e+02 2.543780052009999793e+02 2.864016610879999689e+02 4.030618372259999660e+02 3.352436686780000059e+02 3.256006926470000167e+02 3.414673069170000304e+02 4.640655253459999585e+02 4.077529116309999608e+02 4.321422776240000303e+02 3.580931234299999915e+02 3.028808531059999609e+02 2.729593245460000048e+02 2.864509850389999883e+02 3.254752392320000354e+02 2.534213607990000128e+02 2.585147337070000049e+02 2.889147136189999969e+02 3.448532847289999950e+02 2.748757839379999837e+02 2.336578461009999899e+02 2.234616936670000200e+02 2.311124366159999965e+02 2.307872605229999863e+02 2.479537779549999925e+02 2.590427469290000317e+02 2.648509963650000145e+02 2.080030189540000265e+02 2.422832195659999854e+02 2.448652786170000013e+02 9.176727258110000207e+01 8.368945969060000323e+01 6.179992013550000252e+01 7.338486294419999467e+01 1.090149554029999877e+02 1.703388356700000088e+02 2.496547398240000177e+02 4.730977121290000014e+02 5.866794083319999800e+02 6.660078371890000426e+02 5.865007788940000637e+02 4.684698771409999836e+02 4.198632476359999828e+02 8.366068321230000038e+02 -1.656335176420000010e+01 -3.541297404310000019e+01 -5.051143057390000024e+01 -5.608022924379999807e+01 -3.736646664639999926e+02 -6.363229772480000292e+02 -1.001506937640000046e+03 -1.171393647999999985e+03 -1.273248113729999886e+03 -1.523082090150000113e+03 -1.616770784750000075e+03 -1.844056709510000019e+03 -2.128616637279999850e+03 -2.298419011450000198e+03 -2.305583726370000022e+03 -2.553545959579999817e+03 -2.827087791800000105e+03 -2.887802288530000169e+03 -2.637081977180000194e+03 -2.044123715310000080e+03 -1.812547970170000099e+03 -2.520176564609999787e+03 -2.659775454030000219e+03 -2.953722671199999695e+03 -3.014972448869999880e+03 -3.410594217840000056e+03 -3.553373353359999783e+03 -3.153823812160000216e+03 -4.020156059880000157e+03 -4.102970141669999975e+03 -4.205130122380000103e+03 -4.479017060870000023e+03 -4.781084940120000283e+03 -4.615301361699999688e+03 -3.846631417260000035e+03
-5.653686559439999655e+03 -5.552582771430000321e+03 -5.660061563639999804e+03 -5.602852148089999901e+03 -5.648454558489999727e+03 -5.367808163550000245e+03 -5.265127906460000304e+03 -4.874827058869999746e+03 -3.299885750219999863e+03 -3.077012642589999814e+03 -2.065214578720000191e+03 -1.958803285539999933e+03 -2.282615653240000029e+03 -2.369471935930000200e+03 -1.990787351669999907e+03 -1.514663738369999919e+03 -1.489725388529999918e+03 -1.364365303840000024e+03 -1.828664201099999900e+03 -1.310574339920000057e+03 -4.545594246439999893e+02 -2.424280412959999751e+02 -1.517170824570000036e+02 -1.294437745349999886e+02 -9.903454467110000792e+01 -8.345885134409999750e+01 -5.250473603119999666e+01 -2.968013841590000013e+01 2.804931835020000008e+01 1.384018047520000039e+02 1.959621900950000111e+02 2.524791314209999769e+02 1.147782646699999987e+02 1.806291639220000036e+02 9.828288291730000026e+01 2.192223707029999957e+02 1.540491223370000000e+02 2.342237579050000136e+02 2.894909388440000271e+02 3.840577212910000071e+02 3.849440973399999848e+02 3.474884828689999949e+02 3.567622190060000094e+02 4.423875505219999695e+02 4.216697057709999967e+02 4.646191502869999681e+02 3.864966647630000125e+02 3.163471685470000239e+02 2.781342706880000151e+02 2.816764463659999933e+02 2.358307784620000120e+02 2.366531306200000131e+02 2.620977692959999672e+02 2.952488266959999805e+02 2.843866946359999588e+02 2.248677119120000043e+02 2.346508817259999944e+02 2.062144814950000011e+02 2.191144471259999875e+02 2.348008957729999793e+02 2.582421403769999984e+02 2.648148817850000114e+02 2.412173454509999715e+02 1.911512334220000184e+02 1.366465198369999996e+02 1.335514264109999942e+02 5.420533278770000152e+01 5.876595484810000158e+01 4.448797265770000564e+01 4.945635542090000314e+01 8.454963142239999740e+01 1.367616521979999789e+02 2.862767896980000160e+02 3.055782233649999853e+02 5.371512143659999765e+02 4.810926710930000354e+02 5.606420662869999205e+02 5.311973394049999797e+02 6.460047301849999712e+02 5.009579589740000074e+02 -2.701563796610000168e+01 -4.753638108530000039e+01 -3.658345297530000551e+01 -8.841225823560000663e+02 -1.097981967059999988e+03 -1.145521017250000114e+03 -1.032767847100000154e+03 -1.000436939370000005e+03 -8.747475521310000204e+02 -1.244500080900000057e+03 -1.223081893419999915e+03 -1.302356447549999984e+03 -1.508252739880000036e+03 -1.785203237980000040e+03 -1.995437724710000111e+03 -1.972352983450000011e+03 -2.234154608889999963e+03 -2.084053546170000118e+03 -2.512216604079999797e+03 -1.313583849970000074e+03 -1.710790180839999948e+03 -2.959843060960000003e+03 -3.218063240779999887e+03 -2.596971117770000092e+03 -2.859231265070000063e+03 -3.041430157520000193e+03 -3.393289926320000177e+03 -4.000013328319999800e+03 -3.022756524469999931e+03 -4.357335135940000328e+03 -4.214036536120000164e+03 -4.262261126289999993e+03 -4.586393563229999927e+03 -4.916469650920000277e+03 -4.738790755580000223e+03
-5.511440752659999816e+03 -5.492197369299999991e+03 -5.712526129740000215e+03 -5.515748938679999810e+03 -5.690180302710000433e+03 -5.266454507090000334e+03 -4.455002210669999840e+03 -4.885864483489999657e+03 -4.396144008219999705e+03 -2.556961414630000036e+03 -1.777558561589999954e+03 -2.490515172410000105e+03 -2.350569707350000044e+03 -2.955125564739999845e+03 -3.173706550089999837e+03 -3.014221666580000146e+03 -2.441475189440000122e+03 -2.019936508649999951e+03 -2.518643629659999988e+03 -2.228352528300000358e+03 -1.356985842470000080e+03 -3.249214130659999569e+02 -2.941547068649999801e+02 -2.409154765690000204e+02 -1.529535517609999999e+02 -1.021344273929999957e+02 -5.648792347689999360e+01 -4.640552928239999630e+01 -2.451635057449999877e+01 5.332961231669999691e+00 1.001569220439999981e+02 7.085328221970000584e+01 4.891971971069999370e+01 1.000957881650000019e+02 7.151061400150000225e+01 1.008202059399999939e+02 1.559102102500000058e+02 1.554722886119999998e+02 2.814344477729999880e+02 3.499886412509999900e+02 4.655098304819999839e+02 3.268600824940000393e+02 3.530819260959999610e+02 3.695238079850000190e+02 3.927718730789999881e+02 3.897114096619999941e+02 3.798924465200000213e+02 2.839523892849999811e+02 2.470737939299999937e+02 2.154705572579999853e+02 2.642933570199999735e+02 2.249794556950000128e+02 2.414654223770000101e+02 2.728898393829999804e+02 2.407801904700000080e+02 2.072094335719999947e+02 2.014542304259999810e+02 2.039387911870000210e+02 2.196662780270000042e+02 2.381062862329999916e+02 3.168205416769999943e+02 3.076514273540000204e+02 2.689448008260000051e+02 1.025267871829999962e+02 7.807104495180000470e+01 5.749147648029999402e+01 3.127854746090000049e+01 5.597874983720000586e+01 1.893141727980000155e+01 2.563892914159999847e+01 6.066922845130000042e+01 1.111996407059999967e+02 2.010064723779999838e+02 2.176314369759999749e+02 4.494558820080000032e+02 4.288407083719999946e+02 7.755525507889999517e+02 7.075050451189999876e+02 6.713801618329999883e+02 1.486778165110000050e+00 -1.989314955599999735e+01 -1.360483166089999827e+02 -9.770260484269999779e+02 -1.138187409760000037e+03 -1.834399448929999892e+02 -9.695223872519999304e+02 -6.609894312730000365e+02 -2.253742147090000287e+02 -2.235924819929999785e+01 -1.208070208089999831e+01 -3.450339132519999907e+02 -1.532835433320000007e+01 -4.346895281019999970e+02 -1.366475904930000070e+03 -1.513665671470000007e+03 -2.001905475539999998e+03 -2.442643910299999789e+03 -3.011167066829999840e+03 -2.869455943710000156e+03 -2.087243031710000196e+03 -2.568747570269999869e+03 -2.333329437330000019e+03 -2.544991330710000057e+03 -2.335335735159999786e+03 -2.971088262910000140e+03 -2.935307356429999800e+03 -3.762504596669999955e+03 -2.428055505110000013e+03 -3.881908557589999873e+03 -4.006038501500000166e+03 -4.222371720230000392e+03 -4.441000665190000291e+03 -4.595565499100000125e+03 -4.602758207419999962e+03 -4.542721720239999740e+03
-5.652703957579999951e+03 -5.608512273610000193e+03 -5.633612213340000380e+03 -5.678607283530000132e+03 -5.713171542650000447e+03 -5.275072763469999700e+03 -4.755532065100000182e+03 -4.120201977020000413e+03 -3.031628758389999803e+03 -2.466305941680000160e+03 -2.563179235349999999e+03 -3.240192904370000178e+03 -2.178012971340000149e+03 -1.778099316790000103e+03 -1.838885585660000061e+03 -3.645991467549999925e+03 -2.840059685199999876e+03 -2.807564403320000110e+03 -1.791072450299999900e+03 -2.835052659359999780e+03 -1.823108521350000046e+03 -6.965156105949999983e+02 -3.458681898749999846e+02 -3.389579477899999915e+02 -2.638135216470000159e+02 -1.490282618999999897e+02 -8.162136684890000993e+01 -7.097458655670000383e+01 -2.862302666800000139e+01 1.390960665039999924e+02 6.160752509249999775e+01 3.692363353639999701e+01 9.331048133440000925e+01 9.825409918820000144e+01 1.209802727600000054e+02 2.301454059959999938e+02 1.242039705939999976e+02 2.237619886209999720e+02 3.007444583149999744e+02 4.215118623219999563e+02 4.723408467460000111e+02 3.808877232190000086e+02 3.347280283449999843e+02 3.964770249309999599e+02 3.878870516090000251e+02 4.333644760280000128e+02 3.544131588690000285e+02 2.598729481859999737e+02 2.328350772379999967e+02 2.665726783259999593e+02 2.531358026649999999e+02 2.326635750490000021e+02 2.197743896279999944e+02 2.748914195720000180e+02 2.086334077059999856e+02 2.050080287720000172e+02 2.044009790929999895e+02 2.293375083290000020e+02 2.305171708240000044e+02 2.633240148730000101e+02 2.472984035350000056e+02 2.055817875270000172e+02 1.929016386079999847e+02 6.664479847939999502e+01 3.453287910639999581e+01 2.264480588670000216e+01 1.381069841470000092e+01 7.673235807470000225e+00 9.446387318499999353e+00 2.137952747309999779e+01 5.709591928550000262e+01 1.036332495200000068e+02 1.362343314640000074e+02 2.000332583140000224e+02 2.392704118849999873e+02 4.878429493450000223e+02 4.969972652090000338e+02 6.925327279980000412e+02 1.039915460830000029e+03 4.572535938560000091e+01 -1.854094449870000005e+01 -7.643092227530000855e+02 -1.383859745049999901e+03 -1.216356899130000102e+03 -1.345655060770000091e+02 -9.103458160789999738e+02 -6.595204115159999674e+02 -4.047230178430000365e+02 -4.040505506469999659e+02 -7.929530879710000590e+02 -7.002248218330000782e+02 -7.960101815100000522e+02 -8.373160839800000304e+02 -1.606362996059999887e+03 -1.691447607770000104e+03 -2.482556549120000000e+03 -2.899385052359999918e+03 -2.980532942699999694e+03 -3.227319966489999842e+03 -3.777841819969999960e+03 -3.545995602840000174e+03 -3.421417923689999952e+03 -2.418222735729999840e+03 -2.402607418980000148e+03 -2.687220735800000057e+03 -3.064205888909999885e+03 -3.371151998979999917e+03 -3.442087299950000215e+03 -4.001748540250000133e+03 -2.995651254970000082e+03 -3.794937271809999856e+03 -4.198659045229999720e+03 -4.552614373929999601e+03 -4.938554386030000387e+03 -4.786969272409999576e+03
-5.389888406920000307e+03 -5.445487837480000053e+03 -5.737120531419999679e+03 -5.646766458340000099e+03 -5.787902529160000086e+03 -5.112100671090000105e+03 -4.664502074390000416e+03 -4.061677190280000104e+03 -3.223889851790000193e+03 -3.004445515949999844e+03 -2.542719338819999848e+03 -3.311097912759999872e+03 -4.218112501460000203e+03 -4.397886460779999652e+03 -5.164117550990000382e+03 -5.189103265040000224e+03 -3.880096785419999833e+03 -3.914653020449999985e+03 -4.684390898749999906e+03 -4.244950695640000049e+03 -1.869253271159999940e+03 -1.361035889270000098e+03 -5.831652234450000378e+02 -2.806231974909999849e+02 -4.058220878239999934e+02 -2.506086345779999931e+02 -1.029908440079999963e+02 -4.260999163900000042e+01 -2.351819689639999922e+01 1.172177451259999970e+02 9.146452537430000973e+01 -1.580848033120000107e+00 2.644100368010000324e+01 4.174079185669999958e+01 8.012832800660000032e+01 1.870271026320000090e+02 4.209493541840000148e+02 2.680485380769999892e+02 3.524481317130000093e+02 5.108683481499999743e+02 4.609223697049999942e+02 3.375313857030000122e+02 1.842319571909999922e+02 3.283630934590000265e+02 4.528679332080000108e+02 3.889859836240000277e+02 3.371812899629999833e+02 2.530037858700000015e+02 2.002178932829999951e+02 2.061866629640000212e+02 2.343632049949999896e+02 2.259691858070000023e+02 2.075353397659999928e+02 2.163890322400000059e+02 2.324258754900000099e+02 2.338660950740000146e+02 2.484478931170000067e+02 2.300266785709999908e+02 2.388966117920000158e+02 3.186218151109999894e+02 2.548865215259999957e+02 3.038241028879999703e+02 3.026411554599999931e+02 6.349408365350000594e+01 3.130989160920000103e+01 9.796830653520000043e-01 -8.076880409350000178e-01 -3.147546890270000119e+00 1.673566841170000208e+00 1.604284743900000265e+01 4.749023512419999804e+01 8.055520413079999287e+01 1.200035679389999927e+02 1.767938992979999853e+02 2.498669128920000162e+02 2.695907623879999733e+02 5.021467708419999667e+02 5.219290110990000358e+02 7.240547870860000330e+02 3.004204608340000249e+01 -3.477436261929999972e+01 -1.378410880350000070e+03 -1.266277130019999959e+03 -9.773449533379999821e+02 -9.244196112710000079e+02 -6.303010870660000364e+02 -3.867001700369999639e+02 -5.320100182410000116e+02 -1.299699189750000130e+02 -6.715636910389999912e+02 -8.672656468180000502e+02 -1.099708037249999961e+03 -9.305726346249999779e+02 -1.847448767400000179e+03 -2.873670295679999981e+03 -3.560933242789999895e+03 -3.406837006039999778e+03 -2.998419951939999919e+03 -4.184263741699999628e+03 -4.023302118130000053e+03 -3.106997164230000180e+03 -3.278352059169999848e+03 -3.220410284720000163e+03 -2.808383055369999965e+03 -3.078188682880000215e+03 -3.174745825380000042e+03 -3.122628575430000183e+03 -3.252800657650000176e+03 -3.369675484979999965e+03 -2.716282139219999863e+03 -3.067868732280000131e+03 -3.850567380840000169e+03 -4.241430694439999570e+03 -4.322213814880000427e+03 -3.930539157979999800e+03
-5.595039436340000066e+03 -5.656694295850000344e+03 -5.637889046780000172e+03 -5.676988049509999655e+03 -5.699557448280000244e+03 -5.391170116180000150e+03 -4.639359314229999654e+03 -4.681318120420000014e+03 -5.127833495159999984e+03 -4.958623564999999871e+03 -5.935660466219999762e+03 -5.531663728839999749e+03 -5.506633837940000376e+03 -5.554626448160000109e+03 -5.719658107350000137e+03 -5.244557419990000199e+03 -5.220310114899999462e+03 -5.279873857569999927e+03 -5.672494332569999642e+03 -5.615778841870000178e+03 -4.143346470980000049e+03 -1.842468322010000065e+03 -1.099562131270000009e+03 -6.662146775480000542e+02 -4.608625683050000248e+02 -3.433764259890000403e+02 -7.498121623709999994e+01 -2.647888286110000067e+01 -2.308388288409999944e+01 -9.800907346380000718e+00 5.592246616699999606e+01 -7.927578857239999444e+00 -8.994344477670001003e-01 8.074004653859999792e+01 1.853845773879999967e+02 2.246789891220000186e+02 3.703143095059999723e+02 3.603975736209999923e+02 4.632656299989999980e+02 5.679854824970000209e+02 5.660669416839999712e+02 3.907338229380000030e+02 4.472946802800000228e+02 1.691993900439999834e+02 3.256409859930000152e+02 3.785297411949999855e+02 3.052687277890000246e+02 2.075691440669999963e+02 1.554333202770000071e+02 2.290796336290000283e+02 2.414868615599999941e+02 2.198253953949999868e+02 2.174038189909999801e+02 2.215316511809999724e+02 2.438895971259999840e+02 2.580242403799999806e+02 2.556038963830000057e+02 2.455433607049999978e+02 2.355636744459999932e+02 2.279054957120000040e+02 2.423490583579999793e+02 2.039472898790000102e+02 5.415384430949999484e+01 2.799192823409999775e+01 1.351862591920000156e+01 -1.184086883039999982e+00 -2.064463554779999654e+00 -3.895966071880000214e+00 -1.913493675129999794e+00 1.217302015109999935e+01 3.488567690929999543e+01 5.608867528600000441e+01 9.282773925600000098e+01 1.300630102179999881e+02 1.574661949149999884e+02 2.109813988520000123e+02 3.902437050839999984e+02 4.351179567109999766e+02 4.724912647859999879e+02 -1.488894328140000134e+01 -5.432908165779999763e+02 -1.617847681049999892e+03 -1.253254746789999899e+03 -4.107851686769999446e+02 -8.122688739360000909e+02 -1.112193144950000033e+03 -7.739234548580000137e+02 -2.665861305990000005e+02 -5.109820374519999859e+02 -9.192353795430000218e+02 -1.011143039140000042e+03 -1.019529746039999964e+03 -1.157455211069999905e+03 -2.001317348439999932e+03 -3.698136077319999913e+03 -4.108477150220000112e+03 -4.595877001490000112e+03 -4.498634409950000190e+03 -4.481947444589999577e+03 -3.923052252779999890e+03 -3.071979298480000125e+03 -3.642633705409999948e+03 -3.198050427849999778e+03 -3.598208057199999530e+03 -2.995831609610000214e+03 -2.992146034779999809e+03 -2.717643121420000170e+03 -2.553766096379999908e+03 -3.297406743389999974e+03 -2.715646662440000000e+03 -4.626197144390000176e+03 -3.164756834029999936e+03 -1.800956369680000080e+03 -3.887133078230000137e+03 -3.461793325380000169e+03
-3.345585787099999834e+03 -5.683985251109999808e+03 -5.556346570169999723e+03 -5.639384783489999791e+03 -5.739844124350000129e+03 -5.455583633539999937e+03 -4.197700587340000311e+03 -3.946593111350000072e+03 -5.186583161260000452e+03 -4.484749391819999801e+03 -5.331812239519999821e+03 -5.699382993340000212e+03 -5.657726943669999855e+03 -5.708310008270000253e+03 -5.683287239960000079e+03 -5.717471705549999569e+03 -5.590678961259999596e+03 -5.554725559059999796e+03 -5.757285312760000124e+03 -5.708050849270000072e+03 -5.162345834820000164e+03 -3.036949733999999808e+03 -1.757329160609999917e+03 -1.568130492539999977e+03 -5.564384130369999184e+02 -3.359058483729999693e+02 -6.950859851719999938e+01 -6.452166925989999413e+01 -4.806533700539999643e+01 -3.647464895979999966e+01 -8.093312667209999756e-01 2.042688433799999981e+00 1.524646780909999961e+02 9.804189495920000752e+01 2.188222327590000020e+02 4.440708710319999568e+02 5.602619236109999292e+02 5.213312047759999359e+02 5.045880476219999764e+02 5.453876560510000218e+02 3.532310613149999767e+02 2.307894751929999870e+02 1.069192537899999991e+02 2.327979528980000055e+02 1.443598280639999984e+02 3.529858748350000042e+02 1.881038982750000059e+02 1.141447951439999997e+02 1.231056047170000056e+02 2.603255320970000071e+02 2.832881205799999975e+02 2.656145853340000258e+02 2.413990956240000116e+02 2.602023878779999677e+02 2.643121130940000398e+02 2.542222226380000052e+02 2.235621143309999752e+02 1.165353078100000062e+02 1.363546243060000052e+02 1.294769988379999859e+02 1.088578883859999991e+02 1.017895710640000004e+02 1.941791969730000034e+01 -9.988009515350000367e-01 -1.996365529290000218e+00 1.184723646259999985e-01 -8.443842842280000482e-01 -7.943388149510001384e+00 -8.062174659389999221e+00 2.570728989240000040e+00 1.195541734119999866e+01 3.692706214679999732e+01 6.655007459920000201e+01 9.656245022310000081e+01 1.342453981339999984e+02 1.785727666299999896e+02 4.530972020490000318e+02 7.496438008280000531e+02 1.227517921839999993e+01 -4.665610255659999694e+01 -1.630475926459999982e+03 -1.853536223359999894e+03 -1.349846955069999922e+03 -1.055118300489999910e+03 -1.115939764799999921e+03 -1.094234939499999882e+03 -2.604384783639999910e+02 -2.810145494159999657e+02 -7.702302568129999827e+02 -8.369161374619999378e+02 -1.172288548060000039e+03 -1.365958759610000016e+03 -1.856966474240000025e+03 -3.023362321260000044e+03 -4.258887234300000273e+03 -4.495421499819999553e+03 -4.664562792519999675e+03 -4.711476869670000269e+03 -4.569723412749999625e+03 -4.174875131099999635e+03 -2.719798822530000052e+03 -3.504264080389999890e+03 -4.083802741649999916e+03 -3.101815299989999858e+03 -3.936392892939999911e+03 -3.053159814749999896e+03 -2.909537645179999799e+03 -2.205140019240000129e+03 -3.203580847629999880e+03 -1.774940389139999979e+03 -2.545737169400000312e+03 -5.239747879059999832e+03 -2.717121987869999884e+03 -3.042570830099999966e+03 -2.910740042939999967e+03
-2.933880121329999838e+03 -5.639687689639999917e+03 -5.636440502559999914e+03 -5.721734622570000283e+03 -5.692758483759999763e+03 -5.419013184100000217e+03 -4.213048418639999909e+03 -4.453908148509999592e+03 -2.957377082890000111e+03 -3.508969120019999991e+03 -4.793228717619999770e+03 -5.011891045319999648e+03 -5.647720026220000364e+03 -5.721740802029999941e+03 -5.875862376220000442e+03 -5.959614124210000227e+03 -5.764940554869999687e+03 -5.779671493269999701e+03 -5.977806438610000441e+03 -5.930845620060000329e+03 -5.268135804429999553e+03 -2.680797889599999962e+03 -2.555679848870000114e+03 -1.981667116150000084e+03 -8.895658535799999527e+02 -3.938401839590000009e+02 -4.666892674390000195e+01 -6.728288106939999125e+01 -3.091517531979999944e+01 -5.564061823200000134e+01 -2.076220234530000042e+01 -6.602060014349999229e+00 -2.013422889190000120e+01 1.866609652050000179e+00 1.431553078160000041e+02 4.558579340350000280e+02 5.650962408340000138e+02 5.476630672040000718e+02 4.734655001030000108e+02 3.180602037730000120e+02 2.999841753759999960e+02 1.627522962570000118e+02 1.333554806639999981e+02 1.489462819670000044e+02 5.911004374339999856e+01 2.687562215450000167e+02 2.565708251990000122e+02 1.195666461950000041e+02 1.074325869500000010e+02 2.154751424499999928e+02 2.605435690429999909e+02 2.421444539459999987e+02 2.397674852730000055e+02 2.425956555029999890e+02 2.831341105899999775e+02 2.275111755469999935e+02 1.921081569090000016e+02 1.446324508229999992e+02 8.143093582230000038e+01 3.838928192600000244e+01 4.181660050179999644e+01 1.406608804490000075e+01 -1.998842574829999830e+00 -5.910116029709999275e+00 -6.989462223430000343e+00 -5.382321266149999950e+00 -7.265454461919999218e+00 -1.691424579219999913e+01 -1.841066847920000171e+01 -5.181712909780000764e+00 1.278875388430000015e+01 3.680392469679999579e+01 6.167164286300000242e+01 9.497942336900000271e+01 1.544265812099999948e+02 2.034771581520000154e+02 3.903793187750000016e+02 2.759952870040000334e+02 3.697240985030000093e+00 -9.928769315469999412e+01 -1.968954019230000085e+03 -1.782600858920000064e+03 -1.353098234840000032e+03 -9.755301634439999816e+02 -1.049338696730000038e+03 -1.109537824000000001e+03 -1.001755742530000020e+03 -1.024691450920000079e+03 -1.204865134500000067e+03 -1.375113397370000030e+03 -1.914821562540000059e+03 -3.394566733090000071e+03 -3.896294834099999662e+03 -4.208853191590000279e+03 -4.498610692739999649e+03 -4.620796557609999581e+03 -4.735787577070000225e+03 -4.634743870989999778e+03 -4.562982430150000255e+03 -4.600116780770000332e+03 -2.677625008429999980e+03 -2.260212763349999932e+03 -3.127450582250000025e+03 -4.256410896319999665e+03 -4.510795457440000064e+03 -3.891778659749999861e+03 -3.252804463940000005e+03 -3.144535153389999778e+03 -2.949370976669999891e+03 -3.352312991280000006e+03 -2.131213488639999923e+03 -3.199366437610000048e+03 -3.968814157069999965e+03 -3.816994501579999906e+03 -2.690814025239999864e+03
-5.069487161410000226e+03 -5.559523996820000320e+03 -5.774858988080000017e+03 -5.712742262120000305e+03 -5.918996784369999659e+03 -5.602023592659999849e+03 -5.247718443040000238e+03 -4.684187314179999703e+03 -4.211061293220000152e+03 -3.219012421099999756e+03 -5.111236312750000252e+03 -5.413051839929999915e+03 -5.713287903929999629e+03 -5.819993591430000379e+03 -5.785188019979999808e+03 -5.736457957569999962e+03 -5.721546454749999612e+03 -5.650073123959999975e+03 -5.640981975470000179e+03 -5.770714657430000443e+03 -5.395554974630000288e+03 -4.870032812450000165e+03 -2.901616065019999951e+03 -2.024867953780000107e+03 -1.556768552530000079e+03 -6.047684773230000701e+02 -2.772189068159999579e+02 -8.673820487959999070e+01 -5.825962160810000512e+01 -8.345670127779999348e+01 -1.945058005309999771e+01 -3.072619594329999870e+01 -2.702666869609999978e+01 1.227834528829999954e+02 7.510915654899999083e+01 3.136555680929999994e+02 4.648279625000000124e+02 3.814776870399999780e+02 4.366255812790000164e+02 2.950597305059999940e+02 1.851328200129999857e+02 5.611083869439999461e+01 9.691111004249999894e+01 9.352503880150000271e+01 1.731731608730000005e+02 3.481314891870000139e+01 1.477019319199999927e+02 2.229628887970000051e+02 1.603729706050000061e+02 2.318113453800000059e+02 2.146546554929999786e+02 2.011885656800000106e+02 1.925813253149999866e+02 2.102015942270000153e+02 1.832515292220000163e+02 1.881601465520000147e+02 1.228150693489999981e+02 2.335434506549999867e+02 5.683101457449999572e+01 2.679368357270000001e+00 -8.073543596100001274e-01 -1.995533139409999768e+00 -6.970209876239999325e+00 -1.186706261619999836e+01 -1.401283580640000181e+01 -1.603664038349999998e+01 -1.836343588389999937e+01 -2.196213073639999891e+01 -2.203515235070000244e+01 -9.703842108869999095e+00 8.339982545730000751e+00 3.183780630329999894e+01 4.599384316119999738e+01 9.348417204549998871e+01 1.852883293190000131e+02 1.564344987919999994e+02 8.394092534329999467e+01 1.905269927809999899e+02 -1.220006715390000096e+01 -2.092859204299999831e+01 -2.235718445439999869e+03 -1.865609647869999890e+03 -1.128139500479999924e+03 -1.226838830429999916e+03 -1.196620312049999939e+03 -1.050057419579999987e+03 -1.226535433830000102e+03 -1.488389556400000174e+03 -1.952509290610000107e+03 -2.550976886410000134e+03 -3.773609487249999802e+03 -4.419146897239999817e+03 -4.606469692530000430e+03 -4.799223521899999469e+03 -4.650942224020000140e+03 -4.671975580590000391e+03 -4.636596906110000418e+03 -4.614877887030000238e+03 -4.564529114089999894e+03 -4.329272167930000251e+03 -2.711836091950000082e+03 -2.653149007930000153e+03 -2.248109402439999940e+03 -2.888625332810000145e+03 -3.569508928209999794e+03 -4.048553778059999786e+03 -3.489497855430000072e+03 -3.420107035819999965e+03 -2.758785595819999799e+03 -2.946455042120000144e+03 -2.769568985859999884e+03 -2.873790641170000072e+03 -2.697085996719999912e+03 -3.303053856049999922e+03 -3.380107770400000391e+03
-4.025318606939999881e+03 -4.688724516340000264e+03 -5.622212955879999754e+03 -5.557837771059999795e+03 -5.104031562619999931e+03 -5.225935151990000122e+03 -5.163856790159999946e+03 -5.035258080870000413e+03 -5.292116277150000315e+03 -4.284845256999999947e+03 -4.971658215849999578e+03 -5.628132353480000347e+03 -5.819565306090000377e+03 -5.735592868699999599e+03 -5.712194387350000397e+03 -5.775627522730000237e+03 -5.705577667300000030e+03 -5.731490435390000130e+03 -5.707390799110000444e+03 -5.827189775490000102e+03 -5.594299543369999810e+03 -4.445096126020000156e+03 -3.350889503890000015e+03 -2.630054531159999897e+03 -1.576723213649999934e+03 -8.794497662530000071e+02 -4.576011019169999940e+02 -2.129242995230000020e+02 -7.552679066950000220e+01 -4.061325823339999808e+00 -8.875060933379998573e+01 -6.580311195260000545e+01 -4.672085106130000298e+01 -3.158765569549999874e+00 2.901193815690000122e+01 1.516790460809999956e+02 3.017051869659999852e+02 4.402988976480000360e+02 3.570884113660000025e+02 3.492188592809999932e+02 1.697488760349999950e+02 1.355074794249999925e+01 4.576711561949999663e+01 1.328118619049999971e+01 1.888770730390000097e+02 2.071581572750000044e-01 1.765910186230000178e+01 2.237907932890000211e+02 2.049772153559999879e+02 2.091101074229999881e+02 1.820007843449999996e+02 1.719687795709999989e+02 1.855087252630000023e+02 1.453912596710000003e+02 1.100809244029999974e+02 1.222052570160000045e+02 4.990509515629999981e+01 3.438128792490000052e+01 9.864752549349999455e+00 -1.000000000000000000e+00 -1.082016191619999956e+00 -6.345396505880000149e+00 -1.297692790550000019e+01 -1.843103411299999905e+01 -2.094445934539999854e+01 -2.403149940340000157e+01 -2.601347142860000261e+01 -2.703816224330000040e+01 -2.408956377630000034e+01 -1.427077604880000194e+01 5.371003758719999688e+00 2.432704302209999980e+01 6.748665246260000572e+01 1.115077989159999987e+02 1.051684931100000000e+02 5.868856302220000032e+01 3.680585931560000290e+01 2.056730716399999892e+02 1.086538486799999959e+01 -3.952186048099999880e+02 -2.181154672539999865e+03 -1.335303969219999999e+03 -1.337288130140000021e+03 -1.148519114499999887e+03 -1.368677602720000095e+03 -1.402705257509999910e+03 -2.094225590970000212e+03 -3.317363446230000136e+03 -3.775423138059999928e+03 -4.508565597509999861e+03 -4.484904629609999574e+03 -4.638075445810000019e+03 -4.608888222579999820e+03 -4.648422142960000201e+03 -4.581610389819999909e+03 -4.794836681580000004e+03 -4.614529522470000302e+03 -4.584836954039999910e+03 -4.419483738459999586e+03 -3.695266491360000146e+03 -2.940892048199999863e+03 -2.581501279969999814e+03 -1.980406799930000034e+03 -2.266054087659999823e+03 -2.383777800930000012e+03 -2.872368616639999800e+03 -3.140562279459999900e+03 -3.873501238329999978e+03 -2.854606703569999809e+03 -2.829220395159999953e+03 -4.144460284779999711e+03 -3.526108450010000070e+03 -2.154474230490000082e+03 -3.429804324520000137e+03 -3.466686981899999864e+03
-4.355781367319999845e+03 -4.717427833199999441e+03 -4.601695464639999955e+03 -4.990185634010000285e+03 -5.435353628820000267e+03 -5.328808525030000055e+03 -5.123796645780000290e+03 -5.159703396840000096e+03 -5.425125531779999619e+03 -4.813614669479999975e+03 -5.066450049760000184e+03 -5.610341912910000246e+03 -5.714418108130000292e+03 -5.616290453839999827e+03 -5.710665662479999810e+03 -5.683074991049999880e+03 -5.666334511709999788e+03 -5.765285016140000153e+03 -5.719394314840000334e+03 -5.678954400290000194e+03 -5.368039550579999741e+03 -4.652264207680000254e+03 -3.004088215289999880e+03 -2.825072077880000052e+03 -2.393144010970000181e+03 -1.890980946160000030e+03 -1.555470622289999937e+03 -3.835071446090000222e+02 -2.635833728970000038e+02 -1.128748012899999935e+02 -5.250506706990000083e+01 -7.483146139350000681e+01 -8.381816189060000966e+01 -4.807006227459999792e+01 -9.674594739380000252e-01 1.741798533230000032e+02 1.518210971459999996e+02 2.569045790579999675e+02 2.642356622479999828e+02 2.715538288710000074e+02 2.367054204570000024e+02 -6.641792192059999600e+00 9.020497147349999523e+00 -9.698340686640000152e-01 1.245786626329999924e+00 4.976040005409999623e+01 2.493518009070000119e+02 2.601263534299999947e+02 2.083241018909999980e+02 1.475745024029999968e+02 1.636636186650000013e+02 1.920291617219999978e+02 1.328855406790000018e+02 8.996190652979998958e+01 4.089386900570000449e+01 4.078494883729999998e+01 2.773761814619999910e+01 -1.960078799679999983e+00 -3.010705564259999800e+00 -2.000000000000000000e+00 -2.942539614020000194e+00 -1.029893664919999985e+01 -1.906293897749999999e+01 -2.395944400519999817e+01 -2.719310174610000175e+01 -2.995730085880000004e+01 -3.205164448969999569e+01 -3.305483727170000208e+01 -2.705195592760000167e+01 -1.538012499999999960e+01 1.887814919750000042e+00 3.378444115179999585e+01 8.182992795340000214e+01 1.651785554649999881e+02 2.875048149820000276e+02 2.033846993230000066e+01 2.096353382880000282e+01 7.006773498470000305e+00 -2.788183552989999825e+01 -1.912015079170000035e+03 -2.204292087249999895e+03 -1.998738325099999884e+03 -1.533245430559999932e+03 -1.650499513219999926e+03 -1.778366317479999907e+03 -2.543282195709999996e+03 -3.948074939319999885e+03 -4.238042523170000095e+03 -4.628487689569999930e+03 -4.630239385679999941e+03 -4.749826456259999759e+03 -4.773918281019999995e+03 -4.680772138699999232e+03 -4.657573543649999920e+03 -4.641669797489999837e+03 -4.628216964440000083e+03 -4.611188523239999995e+03 -4.337991653449999831e+03 -3.800821097569999893e+03 -3.129417828990000089e+03 -2.703152778319999925e+03 -1.921783787150000080e+03 -2.062201999320000141e+03 -1.874599023779999925e+03 -2.080215388080000139e+03 -1.992163282859999981e+03 -2.399791380040000149e+03 -3.234375887900000180e+03 -3.298005626420000226e+03 -3.218682543370000076e+03 -4.330423462419999851e+03 -4.517145812659999820e+02 -2.395434680540000045e+03 -3.308410804000000098e+03 -3.795632963829999881e+03
-4.297501275460000215e+03 -3.998832292300000063e+03 -3.871577115909999975e+03 -3.328401532240000051e+03 -3.381622777609999957e+03 -2.722934224380000160e+03 -5.051564994379999916e+03 -5.102800496500000008e+03 -5.463154881520000345e+03 -5.331919075249999878e+03 -5.368503174329999638e+03 -5.568749079770000208e+03 -5.516075511430000006e+03 -5.547368849829999817e+03 -5.595138080640000226e+03 -5.801015138890000344e+03 -5.715579808399999820e+03 -5.660880142869999872e+03 -5.656100900700000238e+03 -5.715079968920000283e+03 -5.471759468059999563e+03 -5.418043176989999665e+03 -2.628761659379999855e+03 -2.406816078039999866e+03 -2.242781783550000000e+03 -2.257649453460000132e+03 -2.171504307449999942e+03 -1.044768594499999992e+01 -4.333099161499999923e+02 -3.298123920329999805e+02 -2.098677773820000141e+02 -1.109831256060000015e+02 -8.007805865679999613e+01 -7.753070907600000794e+01 -2.812075688170000021e+01 -5.166405726149999822e+00 7.832682902270000191e+00 2.117005676940000285e+02 7.190797678100000212e+01 1.768883826040000145e+02 1.346851649040000041e+02 -4.211646997550000293e+01 -2.216812777230000009e+01 -1.029457662149999919e+01 2.317399368469999832e+00 2.307939441190000025e+02 2.686004209320000200e+02 2.992456785090000153e+02 1.553290462070000046e+02 1.431719634720000158e+02 1.421167179809999936e+02 2.061220546179999928e+02 1.925562951569999939e+02 8.018020172779999655e+01 3.707624883769999968e+01 3.698874302809999648e+01 5.999067290290000187e+00 -2.703376684279999775e+00 -1.873590414229999723e+00 -1.000000000000000000e+00 -1.994339393520000003e+00 -1.333168096799999880e+01 -2.357707906789999797e+01 -2.908660493170000194e+01 -3.280315562219999492e+01 -3.501841821640000063e+01 -3.600000000000000000e+01 -3.600000000000000000e+01 -2.988597968820000261e+01 -1.615859800000000135e+01 2.267917790200000283e+00 3.555708062429999927e+01 1.127003384779999919e+02 1.598196837959999925e+02 1.014608925760000062e+02 -4.995307229619999845e+00 6.168481414440000421e+00 -2.853369922849999796e+01 -2.370433003029999782e+03 -2.806373919850000220e+03 -2.880852659709999898e+03 -6.898751791449999473e+02 -1.717086017309999988e+03 -2.296391749549999986e+03 -3.344877126410000074e+03 -4.221260206509999989e+03 -4.487286195040000166e+03 -4.521907045060000200e+03 -4.575010572950000096e+03 -4.632361975949999760e+03 -4.638511903730000085e+03 -4.731783770820000427e+03 -4.661175819379999666e+03 -4.642960350049999761e+03 -4.621236252239999885e+03 -4.584562066759999652e+03 -4.512750050730000112e+03 -4.122559889299999668e+03 -3.303382164130000092e+03 -3.121453544080000029e+03 -2.469573503529999925e+03 -1.816156039190000001e+03 -1.915649015290000079e+03 -1.875598167180000019e+03 -2.135775520659999984e+03 -1.982764382780000005e+03 -1.597481287860000066e+03 -2.660142865679999886e+03 -2.788306766929999867e+03 -3.647487435389999973e+03 -4.283040713520000281e+03 -1.791980114720000074e+03 1.600922884379999971e+02 -2.935752694710000014e+03 -4.081241072050000184e+03
-3.903881162579999909e+03 -3.779177681879999909e+03 -3.677487228179999875e+03 -3.147844363489999978e+03 -2.780439355630000136e+03 -3.708022861739999826e+03 -3.559541000379999787e+03 -3.198619394199999988e+03 -5.555673043939999843e+03 -5.050172106240000176e+03 -5.510577991219999603e+03 -5.263245734920000359e+03 -5.352143434650000017e+03 -5.364737946279999960e+03 -5.321630161940000107e+03 -5.582777892809999685e+03 -5.425419145849999950e+03 -5.606492501069999889e+03 -5.587149437070000204e+03 -5.654163523019999957e+03 -5.556618993250000131e+03 -4.943044227549999960e+03 -2.924154722159999892e+03 -1.831499317119999887e+03 -2.335787196480000148e+03 -2.329908322509999834e+03 -1.919780085820000068e+03 -7.838040536420000137e+01 -5.033796703689999958e+02 -4.177950950950000220e+02 -2.784320381059999931e+02 -1.993775366399999882e+02 -1.099015034660000083e+02 -7.042926106449999679e+01 -6.266192489399999488e+01 -3.910082465820000408e+01 -1.193585227589999853e+01 -3.931502742749999779e+00 6.634843932609999229e+01 6.891634469630000126e+01 -6.158077485800000517e+01 -4.415774323469999985e+01 -4.268455305980000247e+01 -2.897053586340000209e+01 6.859616104730000608e+00 2.230153187590000030e+01 6.550479892689999417e+01 7.213701213049999694e+01 8.065250730729999873e+01 1.332679371670000137e+02 2.823251471450000167e+02 2.094777922740000236e+02 3.190048409450000122e+02 1.648910326049999924e+02 1.924190328880000038e+02 1.222218698520000117e+02 6.618657123250000041e+01 3.028098285540000134e+01 -4.632581091339999624e+00 6.188746350960000342e+01 -1.854339194550000069e+00 -1.648666512710000021e+01 -2.606691170050000039e+01 -3.299845838610000470e+01 -3.600000000000000000e+01 -3.600267157049999867e+01 -3.700000000000000000e+01 -3.600000000000000000e+01 -3.060421010159999966e+01 -1.893361221190000165e+01 3.490668392830000410e+00 5.558572362419999990e+01 1.346988225739999905e+02 1.504527698389999841e+02 6.263302249500000016e+02 -5.000000000000000000e+00 -6.546607880630000409e+01 -2.720791856519999783e+03 -2.727806828719999885e+03 -2.967477368440000191e+03 -3.324842411720000200e+03 -2.291902295039999899e+03 -2.240494850900000074e+03 -2.916815706349999800e+03 -4.123700228779999634e+03 -4.338893802239999786e+03 -4.473947895109999990e+03 -4.262673285269999724e+03 -4.529961676810000426e+03 -4.606867484450000120e+03 -4.531932381779999560e+03 -4.600646933250000075e+03 -4.534729136130000370e+03 -4.550535721989999729e+03 -4.600533586120000109e+03 -4.413548185769999691e+03 -4.333047641029999795e+03 -3.259413649050000004e+03 -3.627733884010000111e+03 -3.471206838179999977e+03 -2.858243574759999774e+03 -2.147575240929999836e+03 -2.122967395359999955e+03 -2.181329638210000212e+03 -1.890833189890000085e+03 -2.398190931500000261e+03 -1.962868286010000020e+03 -2.474539645140000175e+03 -3.066983966199999486e+03 -3.940889712589999817e+03 -2.986088973460000034e+03 -5.080871893490000275e+02 -3.085283570760000202e+03 -3.838621569330000057e+03 -5.288626976199999262e+03
