6.281200000000000045e+02 7.529500000000000455e+02 7.833400000000000318e+02 7.956699999999999591e+02 7.998600000000000136e+02 8.000199999999999818e+02 8.000000000000000000e+02 8.000000000000000000e+02 8.000000000000000000e+02 7.998899999999999864e+02 8.062300000000000182e+02 8.519099999999999682e+02 9.737200000000000273e+02 1.111710000000000036e+03 1.181559999999999945e+03 1.198509999999999991e+03 1.200059999999999945e+03 1.200000000000000000e+03 1.200000000000000000e+03 1.200000000000000000e+03 1.200000000000000000e+03 1.200000000000000000e+03 1.200059999999999945e+03 1.194150000000000091e+03 1.142039999999999964e+03 9.897500000000000000e+02 8.078300000000000409e+02 7.179500000000000455e+02 7.006299999999999955e+02 6.999400000000000546e+02 7.053400000000000318e+02 7.452999999999999545e+02 8.511200000000000045e+02 9.642300000000000182e+02 1.021929999999999950e+03 1.063630000000000109e+03 1.115440000000000055e+03 1.159829999999999927e+03 1.186319999999999936e+03 1.196720000000000027e+03 1.198099999999999909e+03 1.195119999999999891e+03 1.188869999999999891e+03 1.168529999999999973e+03 1.060240000000000009e+03 7.337799999999999727e+02 3.144700000000000273e+02 1.017099999999999937e+02 6.043999999999999773e+01 5.963000000000000256e+01 5.785000000000000142e+01 5.274000000000000199e+01 4.399000000000000199e+01 3.559000000000000341e+01 3.132000000000000028e+01 3.014999999999999858e+01 2.992000000000000171e+01 2.942999999999999972e+01 2.778000000000000114e+01 2.471999999999999886e+01 2.151999999999999957e+01 1.933999999999999986e+01 1.751000000000000156e+01 1.593999999999999950e+01 1.549000000000000021e+01 1.600000000000000000e+01 1.680999999999999872e+01 1.776000000000000156e+01 1.767000000000000171e+01 1.614999999999999858e+01 1.480000000000000071e+01 1.596000000000000085e+01 2.046000000000000085e+01 2.830999999999999872e+01 3.767999999999999972e+01 4.442999999999999972e+01 4.881000000000000227e+01 5.438000000000000256e+01 6.407999999999999829e+01 7.648999999999999488e+01 8.846999999999999886e+01 9.656000000000000227e+01 9.951000000000000512e+01 1.000000000000000000e+02 1.001599999999999966e+02 1.041800000000000068e+02 1.156200000000000045e+02 1.009399999999999977e+02 -1.419999999999999929e+00 -1.316500000000000057e+02 -1.904799999999999898e+02 -1.998300000000000125e+02 -2.405200000000000102e+02 -5.827400000000000091e+02 -1.633750000000000000e+03 -3.020710000000000036e+03 -3.804539999999999964e+03 -3.987949999999999818e+03 -4.000019999999999982e+03 -4.000000000000000000e+03 -4.000000000000000000e+03 -4.000000000000000000e+03 -4.000000000000000000e+03 -4.000000000000000000e+03 -4.000000000000000000e+03 -4.000000000000000000e+03 -4.000000000000000000e+03 -4.000000000000000000e+03 -4.000000000000000000e+03 -4.000000000000000000e+03 -4.000000000000000000e+03 -4.000000000000000000e+03 -4.000000000000000000e+03 -4.000000000000000000e+03 -4.000000000000000000e+03 -4.000000000000000000e+03
3.736499999999999773e+02 5.987899999999999636e+02 6.943200000000000500e+02 7.549299999999999500e+02 7.860700000000000500e+02 7.976799999999999500e+02 8.000099999999999909e+02 8.000000000000000000e+02 8.000000000000000000e+02 8.002500000000000000e+02 8.132400000000000091e+02 8.787400000000000091e+02 1.018559999999999945e+03 1.144930000000000064e+03 1.192980000000000018e+03 1.200049999999999955e+03 1.200000000000000000e+03 1.200000000000000000e+03 1.200000000000000000e+03 1.200000000000000000e+03 1.200000000000000000e+03 1.200000000000000000e+03 1.200140000000000100e+03 1.190299999999999955e+03 1.122500000000000000e+03 9.534800000000000182e+02 7.820000000000000000e+02 7.100000000000000000e+02 6.984199999999999591e+02 6.988500000000000227e+02 7.083200000000000500e+02 7.693999999999999773e+02 9.227899999999999636e+02 1.077750000000000000e+03 1.144740000000000009e+03 1.166650000000000091e+03 1.183029999999999973e+03 1.194220000000000027e+03 1.199049999999999955e+03 1.200069999999999936e+03 1.200049999999999955e+03 1.200069999999999936e+03 1.200339999999999918e+03 1.192849999999999909e+03 1.103960000000000036e+03 7.919099999999999682e+02 3.605799999999999841e+02 1.205699999999999932e+02 6.401000000000000512e+01 5.988000000000000256e+01 5.943999999999999773e+01 5.709000000000000341e+01 5.060000000000000142e+01 4.146000000000000085e+01 3.436999999999999744e+01 3.107999999999999829e+01 3.012999999999999901e+01 2.985999999999999943e+01 2.901999999999999957e+01 2.651999999999999957e+01 2.289999999999999858e+01 2.030000000000000071e+01 1.862000000000000099e+01 1.692000000000000171e+01 1.571000000000000085e+01 1.536999999999999922e+01 1.552999999999999936e+01 1.574000000000000021e+01 1.550999999999999979e+01 1.460999999999999943e+01 1.444999999999999929e+01 1.767999999999999972e+01 2.692999999999999972e+01 4.357999999999999829e+01 6.142999999999999972e+01 7.203000000000000114e+01 7.685999999999999943e+01 8.115000000000000568e+01 8.706999999999999318e+01 9.309000000000000341e+01 9.723000000000000398e+01 9.934000000000000341e+01 9.996999999999999886e+01 1.000000000000000000e+02 1.000400000000000063e+02 1.019899999999999949e+02 1.089500000000000028e+02 9.737000000000000455e+01 9.750000000000000000e+00 -1.189099999999999966e+02 -1.861999999999999886e+02 -2.009000000000000057e+02 -2.891299999999999955e+02 -7.954299999999999500e+02 -2.008559999999999945e+03 -3.289050000000000182e+03 -3.882480000000000018e+03 -3.996619999999999891e+03 -4.000000000000000000e+03 -4.000000000000000000e+03 -4.000000000000000000e+03 -4.000000000000000000e+03 -4.000000000000000000e+03 -4.000000000000000000e+03 -4.000000000000000000e+03 -4.000000000000000000e+03 -4.000000000000000000e+03 -4.000000000000000000e+03 -4.000000000000000000e+03 -4.000000000000000000e+03 -4.000000000000000000e+03 -4.000000000000000000e+03 -4.000000000000000000e+03 -4.000000000000000000e+03 -4.000000000000000000e+03 -4.000000000000000000e+03
-7.968999999999999773e+01 2.813399999999999750e+02 4.638000000000000114e+02 6.092699999999999818e+02 7.108200000000000500e+02 7.675000000000000000e+02 7.925399999999999636e+02 7.997200000000000273e+02 8.000199999999999818e+02 8.034299999999999500e+02 8.309900000000000091e+02 9.215599999999999454e+02 1.063650000000000091e+03 1.165470000000000027e+03 1.196809999999999945e+03 1.200000000000000000e+03 1.200000000000000000e+03 1.200000000000000000e+03 1.200000000000000000e+03 1.200000000000000000e+03 1.200000000000000000e+03 1.200000000000000000e+03 1.199759999999999991e+03 1.183069999999999936e+03 1.096240000000000009e+03 9.112599999999999909e+02 7.467500000000000000e+02 6.843300000000000409e+02 6.766399999999999864e+02 6.815499999999999545e+02 6.981200000000000045e+02 7.647999999999999545e+02 9.249600000000000364e+02 1.096019999999999982e+03 1.177089999999999918e+03 1.195859999999999900e+03 1.199000000000000000e+03 1.200009999999999991e+03 1.200019999999999982e+03 1.200000000000000000e+03 1.200000000000000000e+03 1.200000000000000000e+03 1.200019999999999982e+03 1.195430000000000064e+03 1.129450000000000045e+03 8.754700000000000273e+02 4.779499999999999886e+02 2.035000000000000000e+02 1.012500000000000000e+02 7.176999999999999602e+01 6.250999999999999801e+01 5.929999999999999716e+01 5.572999999999999687e+01 4.885000000000000142e+01 4.045000000000000284e+01 3.409000000000000341e+01 3.103999999999999915e+01 3.010999999999999943e+01 2.955000000000000071e+01 2.767000000000000171e+01 2.408999999999999986e+01 2.105999999999999872e+01 1.944000000000000128e+01 1.798000000000000043e+01 1.646000000000000085e+01 1.552999999999999936e+01 1.528999999999999915e+01 1.541000000000000014e+01 1.561999999999999922e+01 1.612999999999999901e+01 1.858999999999999986e+01 2.585999999999999943e+01 4.121999999999999886e+01 6.374000000000000199e+01 8.296999999999999886e+01 9.181999999999999318e+01 9.450000000000000000e+01 9.593000000000000682e+01 9.757999999999999829e+01 9.904999999999999716e+01 9.978000000000000114e+01 9.998999999999999488e+01 1.000000000000000000e+02 1.000000000000000000e+02 9.998999999999999488e+01 1.005799999999999983e+02 1.030900000000000034e+02 9.006000000000000227e+01 1.393999999999999950e+01 -1.080499999999999972e+02 -1.814699999999999989e+02 -2.128499999999999943e+02 -3.942500000000000000e+02 -1.122920000000000073e+03 -2.440199999999999818e+03 -3.532909999999999854e+03 -3.939670000000000073e+03 -4.000539999999999964e+03 -4.000000000000000000e+03 -4.000000000000000000e+03 -4.000000000000000000e+03 -4.000000000000000000e+03 -4.000000000000000000e+03 -4.000000000000000000e+03 -4.000000000000000000e+03 -4.000000000000000000e+03 -4.000000000000000000e+03 -4.000000000000000000e+03 -4.000000000000000000e+03 -4.000000000000000000e+03 -4.000000000000000000e+03 -4.000000000000000000e+03 -4.000000000000000000e+03 -4.000000000000000000e+03 -4.000000000000000000e+03 -4.000000000000000000e+03
-5.594199999999999591e+02 -6.359000000000000341e+01 1.475000000000000000e+02 3.261499999999999773e+02 5.048100000000000023e+02 6.550700000000000500e+02 7.523099999999999454e+02 7.918500000000000227e+02 8.002999999999999545e+02 8.115800000000000409e+02 8.663600000000000136e+02 9.866000000000000227e+02 1.115400000000000091e+03 1.182940000000000055e+03 1.199019999999999982e+03 1.200000000000000000e+03 1.200000000000000000e+03 1.200000000000000000e+03 1.200000000000000000e+03 1.200000000000000000e+03 1.200000000000000000e+03 1.200009999999999991e+03 1.196680000000000064e+03 1.165720000000000027e+03 1.050230000000000018e+03 8.462799999999999727e+02 6.743600000000000136e+02 6.032300000000000182e+02 5.954299999999999500e+02 6.121000000000000227e+02 6.479800000000000182e+02 7.194600000000000364e+02 8.628500000000000227e+02 1.041359999999999900e+03 1.155970000000000027e+03 1.193819999999999936e+03 1.199880000000000109e+03 1.200000000000000000e+03 1.200000000000000000e+03 1.200000000000000000e+03 1.200000000000000000e+03 1.200000000000000000e+03 1.200000000000000000e+03 1.198170000000000073e+03 1.163079999999999927e+03 1.007570000000000050e+03 7.113099999999999454e+02 4.288700000000000045e+02 2.500200000000000102e+02 1.510600000000000023e+02 1.002500000000000000e+02 7.395000000000000284e+01 6.095000000000000284e+01 5.513000000000000256e+01 4.834000000000000341e+01 4.017999999999999972e+01 3.399000000000000199e+01 3.103999999999999915e+01 2.994000000000000128e+01 2.851999999999999957e+01 2.546000000000000085e+01 2.210000000000000142e+01 2.017000000000000171e+01 1.900000000000000000e+01 1.766000000000000014e+01 1.651999999999999957e+01 1.603999999999999915e+01 1.626000000000000156e+01 1.723000000000000043e+01 2.005000000000000071e+01 2.741000000000000014e+01 4.142999999999999972e+01 6.146999999999999886e+01 8.184000000000000341e+01 9.443000000000000682e+01 9.871999999999999886e+01 9.954000000000000625e+01 9.979000000000000625e+01 9.981999999999999318e+01 9.998999999999999488e+01 1.000000000000000000e+02 1.000000000000000000e+02 1.000000000000000000e+02 1.000000000000000000e+02 1.000000000000000000e+02 1.000400000000000063e+02 1.002699999999999960e+02 8.648000000000000398e+01 2.005999999999999872e+01 -9.571999999999999886e+01 -1.758700000000000045e+02 -2.392700000000000102e+02 -5.589299999999999500e+02 -1.539460000000000036e+03 -2.888960000000000036e+03 -3.734019999999999982e+03 -3.974159999999999854e+03 -4.000010000000000218e+03 -4.000000000000000000e+03 -4.000000000000000000e+03 -4.000000000000000000e+03 -4.000000000000000000e+03 -4.000000000000000000e+03 -4.000000000000000000e+03 -4.000000000000000000e+03 -4.000000000000000000e+03 -4.000000000000000000e+03 -4.000000000000000000e+03 -4.000000000000000000e+03 -4.000000000000000000e+03 -4.000000000000000000e+03 -4.000000000000000000e+03 -4.000000000000000000e+03 -4.000000000000000000e+03 -4.000000000000000000e+03 -4.000000000000000000e+03
-9.819500000000000455e+02 -3.064800000000000182e+02 -9.467000000000000171e+01 3.085999999999999943e+01 2.058000000000000114e+02 4.300199999999999818e+02 6.407599999999999909e+02 7.603300000000000409e+02 7.972300000000000182e+02 8.238500000000000227e+02 9.099800000000000182e+02 1.051359999999999900e+03 1.156990000000000009e+03 1.194279999999999973e+03 1.199960000000000036e+03 1.200000000000000000e+03 1.200000000000000000e+03 1.200000000000000000e+03 1.200000000000000000e+03 1.200000000000000000e+03 1.200019999999999982e+03 1.199210000000000036e+03 1.186720000000000027e+03 1.126890000000000100e+03 9.727300000000000182e+02 7.464400000000000546e+02 5.571200000000000045e+02 4.692799999999999727e+02 4.563899999999999864e+02 4.814800000000000182e+02 5.377699999999999818e+02 6.243799999999999955e+02 7.572599999999999909e+02 9.396900000000000546e+02 1.102640000000000100e+03 1.181440000000000055e+03 1.198930000000000064e+03 1.200000000000000000e+03 1.200000000000000000e+03 1.200000000000000000e+03 1.200000000000000000e+03 1.200000000000000000e+03 1.200000000000000000e+03 1.200029999999999973e+03 1.188549999999999955e+03 1.126220000000000027e+03 9.774400000000000546e+02 7.743700000000000045e+02 5.681200000000000045e+02 3.916399999999999864e+02 2.564499999999999886e+02 1.490399999999999920e+02 8.401000000000000512e+01 6.125000000000000000e+01 5.496000000000000085e+01 4.811999999999999744e+01 4.010000000000000142e+01 3.420000000000000284e+01 3.133999999999999986e+01 2.966000000000000014e+01 2.710000000000000142e+01 2.357999999999999829e+01 2.098000000000000043e+01 1.976000000000000156e+01 1.892000000000000171e+01 1.808999999999999986e+01 1.764999999999999858e+01 1.789000000000000057e+01 1.944000000000000128e+01 2.508999999999999986e+01 3.878999999999999915e+01 5.942999999999999972e+01 7.992000000000000171e+01 9.329000000000000625e+01 9.871999999999999886e+01 9.987999999999999545e+01 1.006299999999999955e+02 1.023299999999999983e+02 1.020600000000000023e+02 1.006500000000000057e+02 9.995999999999999375e+01 1.000000000000000000e+02 1.000000000000000000e+02 1.000000000000000000e+02 1.000000000000000000e+02 1.000000000000000000e+02 9.973000000000000398e+01 8.834000000000000341e+01 3.166000000000000014e+01 -7.934999999999999432e+01 -1.684099999999999966e+02 -2.750899999999999750e+02 -7.558799999999999955e+02 -1.947730000000000018e+03 -3.238610000000000127e+03 -3.863489999999999782e+03 -3.994039999999999964e+03 -4.000000000000000000e+03 -4.000000000000000000e+03 -4.000000000000000000e+03 -4.000000000000000000e+03 -4.000000000000000000e+03 -4.000000000000000000e+03 -4.000000000000000000e+03 -4.000000000000000000e+03 -4.000000000000000000e+03 -4.000000000000000000e+03 -4.000000000000000000e+03 -4.000000000000000000e+03 -4.000000000000000000e+03 -4.000000000000000000e+03 -4.000000000000000000e+03 -4.000000000000000000e+03 -4.000000000000000000e+03 -4.000000000000000000e+03 -4.000000000000000000e+03
-1.359849999999999909e+03 -4.742200000000000273e+02 -2.048600000000000136e+02 -1.375900000000000034e+02 -3.814000000000000057e+01 1.691999999999999886e+02 4.572699999999999818e+02 6.845000000000000000e+02 7.811000000000000227e+02 8.329500000000000455e+02 9.408799999999999955e+02 1.088869999999999891e+03 1.176210000000000036e+03 1.198809999999999945e+03 1.200140000000000100e+03 1.200049999999999955e+03 1.200000000000000000e+03 1.200019999999999982e+03 1.200089999999999918e+03 1.200059999999999945e+03 1.199799999999999955e+03 1.193730000000000018e+03 1.161019999999999982e+03 1.064049999999999955e+03 8.861599999999999682e+02 6.595499999999999545e+02 4.635799999999999841e+02 3.660899999999999750e+02 3.469100000000000250e+02 3.643000000000000114e+02 4.115899999999999750e+02 4.937400000000000091e+02 6.226000000000000227e+02 8.159400000000000546e+02 1.032339999999999918e+03 1.162589999999999918e+03 1.197259999999999991e+03 1.200009999999999991e+03 1.200000000000000000e+03 1.200000000000000000e+03 1.200000000000000000e+03 1.200000000000000000e+03 1.200000000000000000e+03 1.200000000000000000e+03 1.198619999999999891e+03 1.184950000000000045e+03 1.140940000000000055e+03 1.054200000000000045e+03 9.233999999999999773e+02 7.635199999999999818e+02 5.753400000000000318e+02 3.491999999999999886e+02 1.627899999999999920e+02 7.895999999999999375e+01 5.938000000000000256e+01 5.485999999999999943e+01 4.827000000000000313e+01 4.104999999999999716e+01 3.588000000000000256e+01 3.261999999999999744e+01 2.960000000000000142e+01 2.569999999999999929e+01 2.208999999999999986e+01 2.028999999999999915e+01 1.971999999999999886e+01 1.937999999999999901e+01 1.917000000000000171e+01 1.933999999999999986e+01 2.125000000000000000e+01 2.939000000000000057e+01 4.760000000000000142e+01 7.112000000000000455e+01 8.970000000000000284e+01 9.793999999999999773e+01 9.984999999999999432e+01 1.009500000000000028e+02 1.079899999999999949e+02 1.196800000000000068e+02 1.186700000000000017e+02 1.067800000000000011e+02 1.006500000000000057e+02 1.000000000000000000e+02 1.000000000000000000e+02 1.000000000000000000e+02 1.000000000000000000e+02 1.000000000000000000e+02 1.000100000000000051e+02 9.192000000000000171e+01 4.561999999999999744e+01 -5.784000000000000341e+01 -1.583000000000000114e+02 -3.131800000000000068e+02 -9.322799999999999727e+02 -2.244409999999999854e+03 -3.451070000000000164e+03 -3.928380000000000109e+03 -4.000449999999999818e+03 -4.000000000000000000e+03 -4.000000000000000000e+03 -4.000000000000000000e+03 -4.000000000000000000e+03 -4.000000000000000000e+03 -4.000000000000000000e+03 -4.000000000000000000e+03 -4.000000000000000000e+03 -4.000000000000000000e+03 -4.000000000000000000e+03 -4.000000000000000000e+03 -4.000000000000000000e+03 -4.000000000000000000e+03 -4.000000000000000000e+03 -4.000000000000000000e+03 -4.000000000000000000e+03 -4.000000000000000000e+03 -4.000000000000000000e+03 -4.000000000000000000e+03
-1.584329999999999927e+03 -5.783500000000000227e+02 -2.430300000000000011e+02 -1.923000000000000114e+02 -1.535999999999999943e+02 -2.073999999999999844e+01 2.504300000000000068e+02 5.450499999999999545e+02 7.217500000000000000e+02 8.185399999999999636e+02 9.406699999999999591e+02 1.085599999999999909e+03 1.168690000000000055e+03 1.190849999999999909e+03 1.194170000000000073e+03 1.195869999999999891e+03 1.197349999999999909e+03 1.197799999999999955e+03 1.196920000000000073e+03 1.195730000000000018e+03 1.192130000000000109e+03 1.171920000000000073e+03 1.106680000000000064e+03 9.836699999999999591e+02 8.239099999999999682e+02 6.339299999999999500e+02 4.466299999999999955e+02 3.384300000000000068e+02 3.088600000000000136e+02 3.121299999999999955e+02 3.328000000000000114e+02 3.814399999999999977e+02 4.855899999999999750e+02 6.832899999999999636e+02 9.485800000000000409e+02 1.134200000000000045e+03 1.193359999999999900e+03 1.200079999999999927e+03 1.200000000000000000e+03 1.200000000000000000e+03 1.200000000000000000e+03 1.200000000000000000e+03 1.200000000000000000e+03 1.200000000000000000e+03 1.200049999999999955e+03 1.199299999999999955e+03 1.193049999999999955e+03 1.173579999999999927e+03 1.131069999999999936e+03 1.055640000000000100e+03 9.066499999999999773e+02 6.296399999999999864e+02 3.106000000000000227e+02 1.205499999999999972e+02 6.701000000000000512e+01 5.925999999999999801e+01 5.518999999999999773e+01 5.010999999999999943e+01 4.465999999999999659e+01 3.971000000000000085e+01 3.496000000000000085e+01 2.964000000000000057e+01 2.432000000000000028e+01 2.110999999999999943e+01 2.007999999999999829e+01 1.989000000000000057e+01 1.985000000000000142e+01 2.001999999999999957e+01 2.235000000000000142e+01 3.210000000000000142e+01 5.189999999999999858e+01 7.526000000000000512e+01 9.237000000000000455e+01 9.895999999999999375e+01 1.000400000000000063e+02 1.063299999999999983e+02 1.357899999999999920e+02 1.793199999999999932e+02 1.718799999999999955e+02 1.261899999999999977e+02 1.034000000000000057e+02 1.000000000000000000e+02 1.000000000000000000e+02 1.000000000000000000e+02 1.000000000000000000e+02 1.000000000000000000e+02 1.000799999999999983e+02 9.514000000000000057e+01 6.128000000000000114e+01 -2.792999999999999972e+01 -1.363499999999999943e+02 -3.193999999999999773e+02 -9.845099999999999909e+02 -2.342309999999999945e+03 -3.517679999999999836e+03 -3.942599999999999909e+03 -4.000239999999999782e+03 -4.000000000000000000e+03 -4.000000000000000000e+03 -4.000000000000000000e+03 -4.000000000000000000e+03 -4.000000000000000000e+03 -4.000000000000000000e+03 -4.000000000000000000e+03 -4.000000000000000000e+03 -4.000000000000000000e+03 -4.000000000000000000e+03 -4.000000000000000000e+03 -4.000000000000000000e+03 -4.000000000000000000e+03 -4.000000000000000000e+03 -4.000000000000000000e+03 -4.000000000000000000e+03 -4.000000000000000000e+03 -4.000000000000000000e+03 -4.000000000000000000e+03
-1.455799999999999955e+03 -5.469099999999999682e+02 -2.413899999999999864e+02 -2.004000000000000057e+02 -1.895699999999999932e+02 -1.252500000000000000e+02 5.899000000000000199e+01 3.276600000000000250e+02 5.686599999999999682e+02 7.468200000000000500e+02 8.929400000000000546e+02 1.027250000000000000e+03 1.110940000000000055e+03 1.142579999999999927e+03 1.154640000000000100e+03 1.163180000000000064e+03 1.169759999999999991e+03 1.172160000000000082e+03 1.168220000000000027e+03 1.161960000000000036e+03 1.150839999999999918e+03 1.109410000000000082e+03 1.017360000000000014e+03 8.978300000000000409e+02 7.796000000000000227e+02 6.337000000000000455e+02 4.608700000000000045e+02 3.426700000000000159e+02 3.045899999999999750e+02 3.004499999999999886e+02 3.051399999999999864e+02 3.223000000000000114e+02 3.835000000000000000e+02 5.543300000000000409e+02 8.416499999999999773e+02 1.085140000000000100e+03 1.182259999999999991e+03 1.199470000000000027e+03 1.200000000000000000e+03 1.200000000000000000e+03 1.200000000000000000e+03 1.200000000000000000e+03 1.200000000000000000e+03 1.200000000000000000e+03 1.200000000000000000e+03 1.200000000000000000e+03 1.200240000000000009e+03 1.198859999999999900e+03 1.192170000000000073e+03 1.169119999999999891e+03 1.081940000000000055e+03 8.384099999999999682e+02 4.653799999999999955e+02 1.939699999999999989e+02 1.018799999999999955e+02 7.993000000000000682e+01 6.846999999999999886e+01 6.064999999999999858e+01 5.732000000000000028e+01 5.482999999999999829e+01 4.842000000000000171e+01 3.870000000000000284e+01 2.964000000000000057e+01 2.369999999999999929e+01 2.089999999999999858e+01 2.010000000000000142e+01 1.998000000000000043e+01 2.025000000000000000e+01 2.321999999999999886e+01 3.428999999999999915e+01 5.459000000000000341e+01 7.704000000000000625e+01 9.307999999999999829e+01 9.904000000000000625e+01 1.009800000000000040e+02 1.209699999999999989e+02 1.931200000000000045e+02 2.815400000000000205e+02 2.541200000000000045e+02 1.554600000000000080e+02 1.076099999999999994e+02 9.990999999999999659e+01 1.000000000000000000e+02 1.000000000000000000e+02 1.000000000000000000e+02 1.000000000000000000e+02 1.000100000000000051e+02 9.782999999999999829e+01 7.726000000000000512e+01 8.439999999999999503e+00 -9.868000000000000682e+01 -2.794599999999999795e+02 -8.944800000000000182e+02 -2.208320000000000164e+03 -3.431570000000000164e+03 -3.923230000000000018e+03 -4.001480000000000018e+03 -3.999980000000000018e+03 -4.000000000000000000e+03 -4.000000000000000000e+03 -4.000000000000000000e+03 -4.000000000000000000e+03 -4.000000000000000000e+03 -4.000000000000000000e+03 -4.000000000000000000e+03 -4.000000000000000000e+03 -4.000000000000000000e+03 -4.000000000000000000e+03 -4.000000000000000000e+03 -4.000000000000000000e+03 -4.000000000000000000e+03 -4.000000000000000000e+03 -4.000000000000000000e+03 -4.000000000000000000e+03 -4.000000000000000000e+03 -4.000000000000000000e+03
-9.632300000000000182e+02 -3.899200000000000159e+02 -2.205399999999999920e+02 -1.995699999999999932e+02 -1.981500000000000057e+02 -1.758400000000000034e+02 -9.210999999999999943e+01 7.965999999999999659e+01 3.320000000000000000e+02 6.027300000000000182e+02 7.996200000000000045e+02 9.215700000000000500e+02 9.909900000000000091e+02 1.024940000000000055e+03 1.044750000000000000e+03 1.061920000000000073e+03 1.076940000000000055e+03 1.083609999999999900e+03 1.074799999999999955e+03 1.060009999999999991e+03 1.041309999999999945e+03 9.918500000000000227e+02 9.043400000000000318e+02 8.096000000000000227e+02 7.122000000000000455e+02 5.850199999999999818e+02 4.407500000000000000e+02 3.391999999999999886e+02 3.047099999999999795e+02 2.999300000000000068e+02 3.000799999999999841e+02 3.043500000000000227e+02 3.372599999999999909e+02 4.683700000000000045e+02 7.378500000000000227e+02 1.013470000000000027e+03 1.155670000000000073e+03 1.194210000000000036e+03 1.199799999999999955e+03 1.200059999999999945e+03 1.200009999999999991e+03 1.200000000000000000e+03 1.200000000000000000e+03 1.200000000000000000e+03 1.200000000000000000e+03 1.200000000000000000e+03 1.199930000000000064e+03 1.197039999999999964e+03 1.186299999999999955e+03 1.159640000000000100e+03 1.084279999999999973e+03 8.876799999999999500e+02 5.698300000000000409e+02 3.219399999999999977e+02 2.201699999999999875e+02 1.704799999999999898e+02 1.301100000000000136e+02 1.056299999999999955e+02 1.068700000000000045e+02 1.122999999999999972e+02 9.375000000000000000e+01 6.215999999999999659e+01 4.106000000000000227e+01 3.037000000000000099e+01 2.410999999999999943e+01 2.117999999999999972e+01 2.030999999999999872e+01 2.067000000000000171e+01 2.451999999999999957e+01 3.700999999999999801e+01 5.771999999999999886e+01 7.934000000000000341e+01 9.398999999999999488e+01 9.901999999999999602e+01 1.053499999999999943e+02 1.501699999999999875e+02 2.706399999999999864e+02 3.754100000000000250e+02 3.077300000000000182e+02 1.700200000000000102e+02 1.091200000000000045e+02 9.990000000000000568e+01 1.000000000000000000e+02 1.000000000000000000e+02 1.000000000000000000e+02 1.000000000000000000e+02 1.000000000000000000e+02 9.959000000000000341e+01 8.882999999999999829e+01 3.859000000000000341e+01 -6.272999999999999687e+01 -2.280900000000000034e+02 -7.258099999999999454e+02 -1.891490000000000009e+03 -3.170210000000000036e+03 -3.811769999999999982e+03 -3.976519999999999982e+03 -3.999199999999999818e+03 -4.000050000000000182e+03 -4.000000000000000000e+03 -4.000000000000000000e+03 -4.000000000000000000e+03 -4.000000000000000000e+03 -4.000000000000000000e+03 -4.000000000000000000e+03 -4.000000000000000000e+03 -4.000000000000000000e+03 -4.000000000000000000e+03 -4.000000000000000000e+03 -4.000000000000000000e+03 -4.000000000000000000e+03 -4.000000000000000000e+03 -4.000000000000000000e+03 -4.000000000000000000e+03 -4.000000000000000000e+03 -4.000000000000000000e+03
-5.253999999999999773e+02 -2.550500000000000114e+02 -2.039099999999999966e+02 -1.998700000000000045e+02 -1.999699999999999989e+02 -1.958300000000000125e+02 -1.722100000000000080e+02 -9.279999999999999716e+01 1.055000000000000000e+02 4.131700000000000159e+02 6.785199999999999818e+02 8.143799999999999955e+02 8.679800000000000182e+02 8.893300000000000409e+02 9.041599999999999682e+02 9.185299999999999727e+02 9.315900000000000318e+02 9.377000000000000455e+02 9.284600000000000364e+02 9.111499999999999773e+02 8.897699999999999818e+02 8.453200000000000500e+02 7.755499999999999545e+02 6.920000000000000000e+02 5.898899999999999864e+02 4.776399999999999864e+02 3.824200000000000159e+02 3.230600000000000023e+02 3.039499999999999886e+02 3.026399999999999864e+02 3.053799999999999955e+02 3.134700000000000273e+02 3.469800000000000182e+02 4.593399999999999750e+02 6.823600000000000136e+02 9.314099999999999682e+02 1.096980000000000018e+03 1.168500000000000000e+03 1.191710000000000036e+03 1.198160000000000082e+03 1.199640000000000100e+03 1.199960000000000036e+03 1.200000000000000000e+03 1.199970000000000027e+03 1.199730000000000018e+03 1.199720000000000027e+03 1.196039999999999964e+03 1.178630000000000109e+03 1.134109999999999900e+03 1.063650000000000091e+03 9.675900000000000318e+02 8.246799999999999500e+02 6.413200000000000500e+02 5.031499999999999773e+02 4.298199999999999932e+02 3.647599999999999909e+02 2.958399999999999750e+02 2.548100000000000023e+02 2.734300000000000068e+02 2.911100000000000136e+02 2.215200000000000102e+02 1.151500000000000057e+02 5.861999999999999744e+01 4.103999999999999915e+01 3.194999999999999929e+01 2.573999999999999844e+01 2.316000000000000014e+01 2.342000000000000171e+01 2.821000000000000085e+01 4.189999999999999858e+01 6.385000000000000142e+01 8.693999999999999773e+01 1.011800000000000068e+02 1.039599999999999937e+02 1.168599999999999994e+02 1.909000000000000057e+02 3.394399999999999977e+02 4.096700000000000159e+02 2.958500000000000227e+02 1.574499999999999886e+02 1.062999999999999972e+02 9.995999999999999375e+01 1.000000000000000000e+02 1.000000000000000000e+02 1.000000000000000000e+02 1.000000000000000000e+02 1.000000000000000000e+02 1.000999999999999943e+02 9.420000000000000284e+01 5.660999999999999943e+01 -3.792999999999999972e+01 -1.796699999999999875e+02 -5.216299999999999955e+02 -1.397670000000000073e+03 -2.583710000000000036e+03 -3.429019999999999982e+03 -3.828380000000000109e+03 -3.967860000000000127e+03 -3.999349999999999909e+03 -3.999989999999999782e+03 -4.000000000000000000e+03 -4.000000000000000000e+03 -4.000000000000000000e+03 -4.000000000000000000e+03 -4.000000000000000000e+03 -4.000000000000000000e+03 -4.000000000000000000e+03 -4.000000000000000000e+03 -4.000000000000000000e+03 -4.000000000000000000e+03 -4.000000000000000000e+03 -4.000000000000000000e+03 -4.000000000000000000e+03 -4.000000000000000000e+03 -4.000000000000000000e+03 -4.000000000000000000e+03
-4.182799999999999727e+02 -2.289900000000000091e+02 -2.005600000000000023e+02 -1.999900000000000091e+02 -2.000000000000000000e+02 -1.999300000000000068e+02 -1.970099999999999909e+02 -1.677400000000000091e+02 -4.638000000000000256e+01 2.161800000000000068e+02 5.191100000000000136e+02 7.171900000000000546e+02 7.955599999999999454e+02 8.092000000000000455e+02 8.014800000000000182e+02 7.940099999999999909e+02 7.920599999999999454e+02 7.940000000000000000e+02 7.885000000000000000e+02 7.688300000000000409e+02 7.367699999999999818e+02 6.839199999999999591e+02 6.109500000000000455e+02 5.281200000000000045e+02 4.424499999999999886e+02 3.714599999999999795e+02 3.303999999999999773e+02 3.140500000000000114e+02 3.167099999999999795e+02 3.271999999999999886e+02 3.412099999999999795e+02 3.678500000000000227e+02 4.258999999999999773e+02 5.395399999999999636e+02 7.039900000000000091e+02 8.695199999999999818e+02 1.004129999999999995e+03 1.096809999999999945e+03 1.149819999999999936e+03 1.176109999999999900e+03 1.187920000000000073e+03 1.193910000000000082e+03 1.195799999999999955e+03 1.193890000000000100e+03 1.189740000000000009e+03 1.185059999999999945e+03 1.169930000000000064e+03 1.118980000000000018e+03 1.021840000000000032e+03 9.125900000000000318e+02 8.224199999999999591e+02 7.484800000000000182e+02 6.847500000000000000e+02 6.422300000000000182e+02 6.115099999999999909e+02 5.688999999999999773e+02 5.185800000000000409e+02 5.052099999999999795e+02 5.590499999999999545e+02 5.693799999999999955e+02 4.080400000000000205e+02 1.862299999999999898e+02 7.709000000000000341e+01 5.179999999999999716e+01 4.363000000000000256e+01 3.624000000000000199e+01 3.217999999999999972e+01 3.221999999999999886e+01 3.793999999999999773e+01 5.557999999999999829e+01 8.887999999999999545e+01 1.254800000000000040e+02 1.428400000000000034e+02 1.349399999999999977e+02 1.405099999999999909e+02 2.256200000000000045e+02 3.565099999999999909e+02 3.626600000000000250e+02 2.338300000000000125e+02 1.324399999999999977e+02 1.026400000000000006e+02 9.998000000000000398e+01 1.000000000000000000e+02 1.000000000000000000e+02 1.000000000000000000e+02 1.000000000000000000e+02 1.000000000000000000e+02 1.000400000000000063e+02 9.646999999999999886e+01 6.792000000000000171e+01 -1.737999999999999901e+01 -1.374600000000000080e+02 -3.266899999999999977e+02 -8.101599999999999682e+02 -1.653089999999999918e+03 -2.602019999999999982e+03 -3.382260000000000218e+03 -3.828789999999999964e+03 -3.977690000000000055e+03 -3.999880000000000109e+03 -4.000000000000000000e+03 -4.000000000000000000e+03 -4.000000000000000000e+03 -4.000000000000000000e+03 -4.000000000000000000e+03 -4.000000000000000000e+03 -4.000000000000000000e+03 -4.000000000000000000e+03 -4.000000000000000000e+03 -4.000000000000000000e+03 -4.000000000000000000e+03 -4.000000000000000000e+03 -4.000000000000000000e+03 -4.000000000000000000e+03 -4.000000000000000000e+03 -4.000000000000000000e+03
-7.322100000000000364e+02 -3.598799999999999955e+02 -2.269099999999999966e+02 -2.003199999999999932e+02 -2.000000000000000000e+02 -2.000000000000000000e+02 -2.002199999999999989e+02 -1.917700000000000102e+02 -1.346599999999999966e+02 3.611999999999999744e+01 3.181399999999999864e+02 5.952599999999999909e+02 7.408500000000000227e+02 7.435000000000000000e+02 6.800199999999999818e+02 6.288099999999999454e+02 6.099500000000000455e+02 6.138400000000000318e+02 6.148400000000000318e+02 5.921000000000000227e+02 5.487400000000000091e+02 4.885199999999999818e+02 4.233100000000000023e+02 3.719499999999999886e+02 3.384300000000000068e+02 3.226700000000000159e+02 3.260099999999999909e+02 3.453899999999999864e+02 3.772500000000000000e+02 4.119900000000000091e+02 4.433000000000000114e+02 4.903500000000000227e+02 5.731900000000000546e+02 6.944900000000000091e+02 8.175700000000000500e+02 8.910800000000000409e+02 9.359500000000000455e+02 9.878200000000000500e+02 1.045759999999999991e+03 1.092700000000000045e+03 1.126630000000000109e+03 1.150029999999999973e+03 1.157400000000000091e+03 1.149539999999999964e+03 1.131309999999999945e+03 1.113420000000000073e+03 1.082039999999999964e+03 1.000980000000000018e+03 8.820700000000000500e+02 7.853899999999999864e+02 7.341499999999999773e+02 7.102899999999999636e+02 6.984199999999999591e+02 6.919700000000000273e+02 6.832000000000000455e+02 6.654400000000000546e+02 6.571100000000000136e+02 7.057899999999999636e+02 7.901100000000000136e+02 7.620399999999999636e+02 5.187500000000000000e+02 2.249699999999999989e+02 8.642000000000000171e+01 5.817000000000000171e+01 5.381000000000000227e+01 4.921000000000000085e+01 4.607999999999999829e+01 4.585999999999999943e+01 5.339999999999999858e+01 8.612000000000000455e+01 1.589199999999999875e+02 2.361899999999999977e+02 2.592799999999999727e+02 2.163400000000000034e+02 1.764600000000000080e+02 2.290000000000000000e+02 3.030199999999999818e+02 2.619800000000000182e+02 1.648100000000000023e+02 1.119000000000000057e+02 1.003900000000000006e+02 1.000000000000000000e+02 1.000000000000000000e+02 1.000000000000000000e+02 1.000000000000000000e+02 1.000000000000000000e+02 1.000000000000000000e+02 1.000000000000000000e+02 9.806999999999999318e+01 7.742000000000000171e+01 5.740000000000000213e+00 -1.019699999999999989e+02 -2.080000000000000000e+02 -3.884800000000000182e+02 -8.062100000000000364e+02 -1.578700000000000045e+03 -2.632400000000000091e+03 -3.510260000000000218e+03 -3.908789999999999964e+03 -3.996260000000000218e+03 -4.000070000000000164e+03 -4.000000000000000000e+03 -4.000000000000000000e+03 -4.000000000000000000e+03 -4.000000000000000000e+03 -4.000000000000000000e+03 -4.000000000000000000e+03 -4.000000000000000000e+03 -4.000000000000000000e+03 -4.000000000000000000e+03 -4.000000000000000000e+03 -4.000000000000000000e+03 -4.000000000000000000e+03 -4.000000000000000000e+03 -4.000000000000000000e+03 -4.000000000000000000e+03
-1.503509999999999991e+03 -7.366599999999999682e+02 -3.271999999999999886e+02 -2.118000000000000114e+02 -1.996999999999999886e+02 -2.000000000000000000e+02 -2.000200000000000102e+02 -1.984600000000000080e+02 -1.797100000000000080e+02 -9.129999999999999716e+01 1.363400000000000034e+02 4.620099999999999909e+02 6.670299999999999727e+02 6.284600000000000364e+02 4.590199999999999818e+02 3.407300000000000182e+02 3.200000000000000000e+02 3.487500000000000000e+02 3.694700000000000273e+02 3.594599999999999795e+02 3.315299999999999727e+02 2.924599999999999795e+02 2.600699999999999932e+02 2.618199999999999932e+02 2.948500000000000227e+02 3.387500000000000000e+02 3.881899999999999977e+02 4.431899999999999977e+02 4.997799999999999727e+02 5.474199999999999591e+02 5.842799999999999727e+02 6.394800000000000182e+02 7.419500000000000455e+02 8.782000000000000455e+02 9.868999999999999773e+02 1.010559999999999945e+03 9.732899999999999636e+02 9.348099999999999454e+02 9.252500000000000000e+02 9.455000000000000000e+02 9.843799999999999955e+02 1.022029999999999973e+03 1.035680000000000064e+03 1.021179999999999950e+03 9.871299999999999955e+02 9.569199999999999591e+02 9.228300000000000409e+02 8.544900000000000091e+02 7.728899999999999864e+02 7.225800000000000409e+02 7.047799999999999727e+02 7.003999999999999773e+02 6.982599999999999909e+02 6.932300000000000182e+02 6.783500000000000227e+02 6.523700000000000045e+02 6.534700000000000273e+02 7.382899999999999636e+02 8.294299999999999500e+02 7.509600000000000364e+02 4.766499999999999773e+02 2.014600000000000080e+02 8.232999999999999829e+01 6.025000000000000000e+01 5.870000000000000284e+01 5.725000000000000000e+01 5.611999999999999744e+01 5.660000000000000142e+01 7.129000000000000625e+01 1.349799999999999898e+02 2.667599999999999909e+02 3.896899999999999977e+02 4.093799999999999955e+02 3.145299999999999727e+02 2.047199999999999989e+02 1.918400000000000034e+02 2.090300000000000011e+02 1.697199999999999989e+02 1.215100000000000051e+02 1.022500000000000000e+02 9.990999999999999659e+01 1.000000000000000000e+02 1.000000000000000000e+02 1.000000000000000000e+02 1.000000000000000000e+02 1.000000000000000000e+02 1.000000000000000000e+02 1.000100000000000051e+02 9.926000000000000512e+01 8.660999999999999943e+01 3.407999999999999829e+01 -6.459999999999999432e+01 -1.556699999999999875e+02 -2.231500000000000057e+02 -3.693100000000000023e+02 -8.562799999999999727e+02 -1.904940000000000055e+03 -3.116710000000000036e+03 -3.807679999999999836e+03 -3.986269999999999982e+03 -4.000030000000000200e+03 -4.000000000000000000e+03 -4.000000000000000000e+03 -4.000000000000000000e+03 -4.000000000000000000e+03 -4.000000000000000000e+03 -4.000000000000000000e+03 -4.000000000000000000e+03 -4.000000000000000000e+03 -4.000000000000000000e+03 -4.000000000000000000e+03 -4.000000000000000000e+03 -4.000000000000000000e+03 -4.000000000000000000e+03 -4.000000000000000000e+03 -4.000000000000000000e+03
-2.439659999999999854e+03 -1.337279999999999973e+03 -5.397100000000000364e+02 -2.490600000000000023e+02 -2.002700000000000102e+02 -2.000000000000000000e+02 -2.000000000000000000e+02 -1.999600000000000080e+02 -1.955900000000000034e+02 -1.495999999999999943e+02 2.489999999999999858e+01 3.398000000000000114e+02 5.560499999999999545e+02 4.715400000000000205e+02 2.131999999999999886e+02 4.863000000000000256e+01 3.185999999999999943e+01 8.045000000000000284e+01 1.234899999999999949e+02 1.424199999999999875e+02 1.449399999999999977e+02 1.336599999999999966e+02 1.335399999999999920e+02 1.894399999999999977e+02 2.959900000000000091e+02 4.101499999999999773e+02 5.050899999999999750e+02 5.732999999999999545e+02 6.216100000000000136e+02 6.541200000000000045e+02 6.866499999999999773e+02 7.589800000000000182e+02 8.916299999999999955e+02 1.034339999999999918e+03 1.120789999999999964e+03 1.130079999999999927e+03 1.080559999999999945e+03 9.932999999999999545e+02 9.005099999999999909e+02 8.419800000000000182e+02 8.327200000000000273e+02 8.503400000000000318e+02 8.596200000000000045e+02 8.477300000000000182e+02 8.194299999999999500e+02 7.955700000000000500e+02 7.768999999999999773e+02 7.478300000000000409e+02 7.179400000000000546e+02 7.025800000000000409e+02 6.971699999999999591e+02 6.920199999999999818e+02 6.800099999999999909e+02 6.566799999999999500e+02 6.157699999999999818e+02 5.596399999999999864e+02 5.428400000000000318e+02 6.210499999999999545e+02 6.842400000000000091e+02 5.672899999999999636e+02 3.250799999999999841e+02 1.388400000000000034e+02 7.096999999999999886e+01 6.011999999999999744e+01 5.990999999999999659e+01 5.971000000000000085e+01 5.954999999999999716e+01 6.425000000000000000e+01 9.698999999999999488e+01 2.013899999999999864e+02 3.720699999999999932e+02 5.010600000000000023e+02 5.006499999999999773e+02 3.694900000000000091e+02 2.126800000000000068e+02 1.468199999999999932e+02 1.350399999999999920e+02 1.187699999999999960e+02 1.042199999999999989e+02 9.993000000000000682e+01 1.000000000000000000e+02 1.000000000000000000e+02 1.000000000000000000e+02 1.000000000000000000e+02 1.000000000000000000e+02 1.000000000000000000e+02 1.000000000000000000e+02 1.000000000000000000e+02 9.990999999999999659e+01 9.381999999999999318e+01 6.040999999999999659e+01 -2.439999999999999858e+01 -1.259099999999999966e+02 -1.823799999999999955e+02 -2.440099999999999909e+02 -5.772200000000000273e+02 -1.554279999999999973e+03 -2.903340000000000146e+03 -3.746139999999999873e+03 -3.977739999999999782e+03 -4.000550000000000182e+03 -4.000000000000000000e+03 -4.000000000000000000e+03 -4.000000000000000000e+03 -4.000000000000000000e+03 -4.000000000000000000e+03 -4.000000000000000000e+03 -4.000000000000000000e+03 -4.000000000000000000e+03 -4.000000000000000000e+03 -4.000000000000000000e+03 -4.000000000000000000e+03 -4.000000000000000000e+03 -4.000000000000000000e+03 -4.000000000000000000e+03 -4.000000000000000000e+03
-3.133460000000000036e+03 -1.968950000000000045e+03 -8.541399999999999864e+02 -3.254700000000000273e+02 -2.070399999999999920e+02 -1.999900000000000091e+02 -2.000000000000000000e+02 -2.000099999999999909e+02 -1.990200000000000102e+02 -1.740000000000000000e+02 -5.906000000000000227e+01 1.730099999999999909e+02 3.565400000000000205e+02 2.897300000000000182e+02 5.136999999999999744e+01 -1.076599999999999966e+02 -1.326299999999999955e+02 -9.531000000000000227e+01 -4.640999999999999659e+01 -1.679999999999999938e+00 2.646999999999999886e+01 3.735000000000000142e+01 6.654999999999999716e+01 1.721299999999999955e+02 3.453899999999999864e+02 5.082699999999999818e+02 6.126000000000000227e+02 6.618200000000000500e+02 6.835099999999999909e+02 6.993400000000000318e+02 7.424199999999999591e+02 8.531100000000000136e+02 1.010860000000000014e+03 1.130880000000000109e+03 1.181140000000000100e+03 1.186380000000000109e+03 1.161140000000000100e+03 1.095599999999999909e+03 9.853400000000000318e+02 8.603600000000000136e+02 7.731499999999999773e+02 7.439600000000000364e+02 7.404800000000000182e+02 7.361399999999999864e+02 7.259299999999999500e+02 7.175900000000000318e+02 7.117300000000000182e+02 7.035099999999999909e+02 6.935299999999999727e+02 6.843999999999999773e+02 6.726599999999999682e+02 6.511699999999999591e+02 6.145499999999999545e+02 5.620800000000000409e+02 4.992799999999999727e+02 4.342300000000000182e+02 4.037400000000000091e+02 4.312300000000000182e+02 4.317200000000000273e+02 3.213399999999999750e+02 1.734399999999999977e+02 8.710999999999999943e+01 6.246999999999999886e+01 5.993999999999999773e+01 6.000000000000000000e+01 5.999000000000000199e+01 6.104999999999999716e+01 7.631999999999999318e+01 1.434199999999999875e+02 2.902900000000000205e+02 4.605199999999999818e+02 5.562400000000000091e+02 5.358400000000000318e+02 3.977200000000000273e+02 2.241800000000000068e+02 1.297800000000000011e+02 1.066200000000000045e+02 1.024500000000000028e+02 1.001700000000000017e+02 1.000000000000000000e+02 1.000000000000000000e+02 1.000000000000000000e+02 1.000000000000000000e+02 1.000000000000000000e+02 1.000000000000000000e+02 1.000000000000000000e+02 1.000000000000000000e+02 1.000000000000000000e+02 1.000000000000000000e+02 9.785999999999999943e+01 7.785999999999999943e+01 1.109999999999999964e+01 -9.159999999999999432e+01 -1.678300000000000125e+02 -2.350200000000000102e+02 -5.682699999999999818e+02 -1.575980000000000018e+03 -2.938730000000000018e+03 -3.760150000000000091e+03 -3.981860000000000127e+03 -4.000309999999999945e+03 -4.000000000000000000e+03 -4.000000000000000000e+03 -4.000000000000000000e+03 -4.000000000000000000e+03 -4.000000000000000000e+03 -4.000000000000000000e+03 -4.000000000000000000e+03 -4.000000000000000000e+03 -4.000000000000000000e+03 -4.000000000000000000e+03 -4.000000000000000000e+03 -4.000000000000000000e+03 -4.000000000000000000e+03 -4.000000000000000000e+03 -4.000000000000000000e+03
-3.505980000000000018e+03 -2.465349999999999909e+03 -1.194539999999999964e+03 -4.346000000000000227e+02 -2.215900000000000034e+02 -1.996399999999999864e+02 -2.000000000000000000e+02 -2.000000000000000000e+02 -1.996399999999999864e+02 -1.902100000000000080e+02 -1.400399999999999920e+02 -2.517999999999999972e+01 8.346999999999999886e+01 6.492000000000000171e+01 -6.615000000000000568e+01 -1.644300000000000068e+02 -1.867500000000000000e+02 -1.708899999999999864e+02 -1.343600000000000136e+02 -8.114000000000000057e+01 -3.259000000000000341e+01 1.409999999999999920e+00 6.375000000000000000e+01 2.161299999999999955e+02 4.290600000000000023e+02 5.939700000000000273e+02 6.706799999999999500e+02 6.935900000000000318e+02 7.007200000000000273e+02 7.207799999999999727e+02 7.946499999999999773e+02 9.427100000000000364e+02 1.094809999999999945e+03 1.175180000000000064e+03 1.197410000000000082e+03 1.199410000000000082e+03 1.192789999999999964e+03 1.165079999999999927e+03 1.086230000000000018e+03 9.414700000000000273e+02 7.938799999999999955e+02 7.208600000000000136e+02 7.050900000000000318e+02 7.032200000000000273e+02 6.994500000000000455e+02 6.931599999999999682e+02 6.838799999999999955e+02 6.689800000000000182e+02 6.477699999999999818e+02 6.219500000000000455e+02 5.906399999999999864e+02 5.475199999999999818e+02 4.925500000000000114e+02 4.326700000000000159e+02 3.812500000000000000e+02 3.414200000000000159e+02 3.123299999999999841e+02 2.801800000000000068e+02 2.228700000000000045e+02 1.478100000000000023e+02 8.957999999999999829e+01 6.481999999999999318e+01 5.996000000000000085e+01 6.000000000000000000e+01 6.000000000000000000e+01 5.995000000000000284e+01 6.304999999999999716e+01 9.285999999999999943e+01 2.010699999999999932e+02 3.818999999999999773e+02 5.301900000000000546e+02 5.882500000000000000e+02 5.580299999999999727e+02 4.290500000000000114e+02 2.488199999999999932e+02 1.343700000000000045e+02 1.031800000000000068e+02 9.995999999999999375e+01 1.000000000000000000e+02 1.000000000000000000e+02 1.000000000000000000e+02 1.000000000000000000e+02 1.000000000000000000e+02 1.000000000000000000e+02 1.000000000000000000e+02 1.000000000000000000e+02 1.000000000000000000e+02 1.000000000000000000e+02 1.000100000000000051e+02 9.945999999999999375e+01 8.875000000000000000e+01 4.263000000000000256e+01 -5.122999999999999687e+01 -1.451599999999999966e+02 -2.545500000000000114e+02 -6.801399999999999864e+02 -1.776890000000000100e+03 -3.092510000000000218e+03 -3.814550000000000182e+03 -3.988309999999999945e+03 -4.000059999999999945e+03 -4.000000000000000000e+03 -4.000000000000000000e+03 -4.000000000000000000e+03 -4.000000000000000000e+03 -4.000000000000000000e+03 -4.000000000000000000e+03 -4.000000000000000000e+03 -4.000000000000000000e+03 -4.000000000000000000e+03 -4.000000000000000000e+03 -4.000000000000000000e+03 -4.000000000000000000e+03 -4.000000000000000000e+03 -4.000000000000000000e+03 -4.000000000000000000e+03
-3.573679999999999836e+03 -2.618570000000000164e+03 -1.326349999999999909e+03 -4.866600000000000250e+02 -2.307199999999999989e+02 -1.989499999999999886e+02 -1.995500000000000114e+02 -2.001999999999999886e+02 -2.002299999999999898e+02 -1.974499999999999886e+02 -1.862700000000000102e+02 -1.538700000000000045e+02 -1.158799999999999955e+02 -1.147099999999999937e+02 -1.541800000000000068e+02 -1.886800000000000068e+02 -1.983000000000000114e+02 -1.936500000000000057e+02 -1.745099999999999909e+02 -1.316500000000000057e+02 -7.409000000000000341e+01 -1.297000000000000064e+01 8.896999999999999886e+01 2.820500000000000114e+02 5.069399999999999977e+02 6.462999999999999545e+02 6.921499999999999773e+02 7.023899999999999864e+02 7.142500000000000000e+02 7.584700000000000273e+02 8.684600000000000364e+02 1.027339999999999918e+03 1.147170000000000073e+03 1.192339999999999918e+03 1.200029999999999973e+03 1.200000000000000000e+03 1.199569999999999936e+03 1.190579999999999927e+03 1.139910000000000082e+03 1.001460000000000036e+03 8.261799999999999500e+02 7.260499999999999545e+02 6.997500000000000000e+02 6.917699999999999818e+02 6.769299999999999500e+02 6.526499999999999773e+02 6.210000000000000000e+02 5.822100000000000364e+02 5.383500000000000227e+02 4.957599999999999909e+02 4.564100000000000250e+02 4.150199999999999818e+02 3.742699999999999818e+02 3.405000000000000000e+02 3.187599999999999909e+02 3.043399999999999750e+02 2.793199999999999932e+02 2.177800000000000011e+02 1.358600000000000136e+02 8.295000000000000284e+01 6.359000000000000341e+01 6.000000000000000000e+01 6.000999999999999801e+01 6.000000000000000000e+01 6.000000000000000000e+01 5.999000000000000199e+01 6.409999999999999432e+01 1.033599999999999994e+02 2.373799999999999955e+02 4.382500000000000000e+02 5.788500000000000227e+02 6.207000000000000455e+02 5.808400000000000318e+02 4.529100000000000250e+02 2.676399999999999864e+02 1.416100000000000136e+02 1.041200000000000045e+02 9.998000000000000398e+01 1.000000000000000000e+02 1.000000000000000000e+02 1.000000000000000000e+02 1.000000000000000000e+02 1.000000000000000000e+02 1.000000000000000000e+02 1.000000000000000000e+02 1.000000000000000000e+02 1.000000000000000000e+02 1.000000000000000000e+02 1.000000000000000000e+02 9.995999999999999375e+01 9.518000000000000682e+01 6.587999999999999545e+01 -1.485999999999999943e+01 -1.229899999999999949e+02 -2.989800000000000182e+02 -8.714500000000000455e+02 -2.077780000000000200e+03 -3.302929999999999836e+03 -3.874960000000000036e+03 -3.994730000000000018e+03 -4.000050000000000182e+03 -4.000000000000000000e+03 -4.000000000000000000e+03 -4.000000000000000000e+03 -4.000000000000000000e+03 -4.000000000000000000e+03 -4.000000000000000000e+03 -4.000000000000000000e+03 -4.000000000000000000e+03 -4.000000000000000000e+03 -4.000000000000000000e+03 -4.000000000000000000e+03 -4.000000000000000000e+03 -4.000000000000000000e+03 -4.000000000000000000e+03 -4.000000000000000000e+03
-3.309769999999999982e+03 -2.245420000000000073e+03 -1.089279999999999973e+03 -4.191200000000000045e+02 -2.452599999999999909e+02 -2.375399999999999920e+02 -2.439099999999999966e+02 -2.500900000000000034e+02 -2.568999999999999773e+02 -2.524499999999999886e+02 -2.371899999999999977e+02 -2.181399999999999864e+02 -1.997299999999999898e+02 -1.904099999999999966e+02 -1.928199999999999932e+02 -1.983100000000000023e+02 -2.000000000000000000e+02 -1.989900000000000091e+02 -1.917500000000000000e+02 -1.666399999999999864e+02 -1.117800000000000011e+02 -2.128999999999999915e+01 1.290399999999999920e+02 3.535600000000000023e+02 5.653999999999999773e+02 6.728600000000000136e+02 7.034800000000000182e+02 7.201399999999999864e+02 7.582799999999999727e+02 8.413899999999999864e+02 9.713799999999999955e+02 1.102289999999999964e+03 1.176990000000000009e+03 1.197980000000000018e+03 1.200029999999999973e+03 1.200000000000000000e+03 1.200000000000000000e+03 1.195579999999999927e+03 1.152920000000000073e+03 1.018870000000000005e+03 8.368899999999999864e+02 7.278500000000000227e+02 6.909800000000000182e+02 6.596499999999999773e+02 6.101599999999999682e+02 5.525099999999999909e+02 4.981499999999999773e+02 4.492599999999999909e+02 4.065299999999999727e+02 3.731499999999999773e+02 3.493899999999999864e+02 3.303999999999999773e+02 3.157200000000000273e+02 3.062400000000000091e+02 3.016899999999999977e+02 2.959800000000000182e+02 2.698500000000000227e+02 1.998899999999999864e+02 1.161400000000000006e+02 7.093999999999999773e+01 6.046000000000000085e+01 5.999000000000000199e+01 6.000000000000000000e+01 6.000000000000000000e+01 6.000000000000000000e+01 6.000000000000000000e+01 6.378999999999999915e+01 1.033499999999999943e+02 2.428400000000000034e+02 4.578899999999999864e+02 6.158600000000000136e+02 6.584700000000000273e+02 5.964199999999999591e+02 4.466499999999999773e+02 2.583000000000000114e+02 1.389099999999999966e+02 1.037600000000000051e+02 9.992000000000000171e+01 1.000000000000000000e+02 1.000000000000000000e+02 1.000000000000000000e+02 1.000000000000000000e+02 1.000000000000000000e+02 1.000000000000000000e+02 1.000000000000000000e+02 1.000000000000000000e+02 1.000000000000000000e+02 9.998999999999999488e+01 9.979999999999999716e+01 9.900000000000000000e+01 9.631000000000000227e+01 7.768000000000000682e+01 1.457000000000000028e+01 -1.009300000000000068e+02 -3.541499999999999773e+02 -1.092430000000000064e+03 -2.400829999999999927e+03 -3.496480000000000018e+03 -3.927300000000000182e+03 -3.999679999999999836e+03 -4.000000000000000000e+03 -4.000000000000000000e+03 -4.000000000000000000e+03 -4.000000000000000000e+03 -4.000000000000000000e+03 -4.000000000000000000e+03 -4.000000000000000000e+03 -4.000000000000000000e+03 -4.000000000000000000e+03 -4.000000000000000000e+03 -4.000000000000000000e+03 -4.000000000000000000e+03 -4.000000000000000000e+03 -4.000000000000000000e+03 -4.000000000000000000e+03 -4.000000000000000000e+03
-2.966900000000000091e+03 -1.779599999999999909e+03 -8.408200000000000500e+02 -4.685400000000000205e+02 -4.633299999999999841e+02 -5.331699999999999591e+02 -5.639400000000000546e+02 -6.022599999999999909e+02 -6.356900000000000546e+02 -6.048899999999999864e+02 -5.335700000000000500e+02 -4.568600000000000136e+02 -3.691000000000000227e+02 -2.760799999999999841e+02 -2.168600000000000136e+02 -2.002400000000000091e+02 -2.000099999999999909e+02 -1.999900000000000091e+02 -1.981299999999999955e+02 -1.847299999999999898e+02 -1.307800000000000011e+02 1.949999999999999956e+00 2.143100000000000023e+02 4.505600000000000023e+02 6.207999999999999545e+02 6.954500000000000455e+02 7.297000000000000455e+02 7.757899999999999636e+02 8.529900000000000091e+02 9.640499999999999545e+02 1.080059999999999945e+03 1.159529999999999973e+03 1.192670000000000073e+03 1.199769999999999982e+03 1.200000000000000000e+03 1.200029999999999973e+03 1.199640000000000100e+03 1.192369999999999891e+03 1.144089999999999918e+03 1.005259999999999991e+03 8.278300000000000409e+02 7.215199999999999818e+02 6.680199999999999818e+02 5.946299999999999955e+02 5.011100000000000136e+02 4.255600000000000023e+02 3.770899999999999750e+02 3.466299999999999955e+02 3.264300000000000068e+02 3.141800000000000068e+02 3.073600000000000136e+02 3.033500000000000227e+02 3.010400000000000205e+02 3.001200000000000045e+02 2.990699999999999932e+02 2.903500000000000227e+02 2.544399999999999977e+02 1.806500000000000057e+02 1.055100000000000051e+02 6.873000000000000398e+01 6.046000000000000085e+01 5.999000000000000199e+01 6.000000000000000000e+01 6.000000000000000000e+01 6.000000000000000000e+01 5.999000000000000199e+01 6.277000000000000313e+01 9.926999999999999602e+01 2.365099999999999909e+02 4.640400000000000205e+02 6.430199999999999818e+02 6.814199999999999591e+02 5.860399999999999636e+02 4.046899999999999977e+02 2.231299999999999955e+02 1.268700000000000045e+02 1.020499999999999972e+02 9.995000000000000284e+01 1.000000000000000000e+02 1.000000000000000000e+02 1.000000000000000000e+02 1.000000000000000000e+02 1.000000000000000000e+02 1.000000000000000000e+02 1.000000000000000000e+02 1.000400000000000063e+02 9.981999999999999318e+01 9.815999999999999659e+01 9.350000000000000000e+01 8.628000000000000114e+01 7.995999999999999375e+01 6.981000000000000227e+01 3.096000000000000085e+01 -7.501999999999999602e+01 -3.885299999999999727e+02 -1.261309999999999945e+03 -2.616820000000000164e+03 -3.620010000000000218e+03 -3.957349999999999909e+03 -4.000030000000000200e+03 -4.000000000000000000e+03 -4.000000000000000000e+03 -4.000000000000000000e+03 -4.000000000000000000e+03 -4.000000000000000000e+03 -4.000000000000000000e+03 -4.000000000000000000e+03 -4.000000000000000000e+03 -4.000000000000000000e+03 -4.000000000000000000e+03 -4.000000000000000000e+03 -4.000000000000000000e+03 -4.000000000000000000e+03 -4.000000000000000000e+03 -4.000000000000000000e+03 -4.000000000000000000e+03
-2.998050000000000182e+03 -1.940759999999999991e+03 -1.228500000000000000e+03 -1.077490000000000009e+03 -1.251289999999999964e+03 -1.444500000000000000e+03 -1.525420000000000073e+03 -1.595380000000000109e+03 -1.661339999999999918e+03 -1.608250000000000000e+03 -1.459670000000000073e+03 -1.254640000000000100e+03 -9.505299999999999727e+02 -5.712699999999999818e+02 -3.016399999999999864e+02 -2.114799999999999898e+02 -1.999199999999999875e+02 -2.000000000000000000e+02 -1.998199999999999932e+02 -1.895099999999999909e+02 -1.255699999999999932e+02 5.771999999999999886e+01 3.290799999999999841e+02 5.546100000000000136e+02 6.749600000000000364e+02 7.326799999999999500e+02 7.916900000000000546e+02 8.761000000000000227e+02 9.790599999999999454e+02 1.080869999999999891e+03 1.154309999999999945e+03 1.189000000000000000e+03 1.198819999999999936e+03 1.200019999999999982e+03 1.199599999999999909e+03 1.198069999999999936e+03 1.194000000000000000e+03 1.177839999999999918e+03 1.115289999999999964e+03 9.711699999999999591e+02 8.082200000000000273e+02 7.106200000000000045e+02 6.358799999999999955e+02 5.213899999999999864e+02 4.052599999999999909e+02 3.409800000000000182e+02 3.163799999999999955e+02 3.070600000000000023e+02 3.026399999999999864e+02 3.006100000000000136e+02 3.000500000000000114e+02 2.999100000000000250e+02 2.999800000000000182e+02 2.999200000000000159e+02 2.962799999999999727e+02 2.768299999999999841e+02 2.250300000000000011e+02 1.507299999999999898e+02 9.201999999999999602e+01 6.650000000000000000e+01 6.057000000000000028e+01 6.002000000000000313e+01 6.000000000000000000e+01 6.000000000000000000e+01 6.000000000000000000e+01 5.999000000000000199e+01 6.328000000000000114e+01 1.006400000000000006e+02 2.372299999999999898e+02 4.708399999999999750e+02 6.529500000000000455e+02 6.709500000000000455e+02 5.408899999999999864e+02 3.414800000000000182e+02 1.816500000000000057e+02 1.141200000000000045e+02 1.005699999999999932e+02 1.000000000000000000e+02 1.000000000000000000e+02 1.000000000000000000e+02 1.000000000000000000e+02 1.000000000000000000e+02 1.000100000000000051e+02 1.000699999999999932e+02 9.978000000000000114e+01 9.826999999999999602e+01 9.368999999999999773e+01 8.309999999999999432e+01 6.357000000000000028e+01 3.789000000000000057e+01 1.885999999999999943e+01 1.567999999999999972e+01 7.250000000000000000e+00 -7.304000000000000625e+01 -4.133000000000000114e+02 -1.346359999999999900e+03 -2.718949999999999818e+03 -3.671309999999999945e+03 -3.966480000000000018e+03 -4.000489999999999782e+03 -4.000000000000000000e+03 -4.000000000000000000e+03 -4.000000000000000000e+03 -4.000000000000000000e+03 -4.000000000000000000e+03 -4.000000000000000000e+03 -4.000000000000000000e+03 -4.000000000000000000e+03 -4.000000000000000000e+03 -4.000000000000000000e+03 -4.000000000000000000e+03 -4.000000000000000000e+03 -4.000000000000000000e+03 -4.000000000000000000e+03 -4.000000000000000000e+03 -4.000000000000000000e+03
-3.423590000000000146e+03 -2.794730000000000018e+03 -2.350940000000000055e+03 -2.306940000000000055e+03 -2.542389999999999873e+03 -2.762099999999999909e+03 -2.845550000000000182e+03 -2.911469999999999800e+03 -2.978559999999999945e+03 -2.929070000000000164e+03 -2.779980000000000018e+03 -2.520679999999999836e+03 -1.980779999999999973e+03 -1.152039999999999964e+03 -4.883299999999999841e+02 -2.389300000000000068e+02 -2.001399999999999864e+02 -2.000000000000000000e+02 -2.001599999999999966e+02 -1.906599999999999966e+02 -1.233499999999999943e+02 7.679000000000000625e+01 3.686700000000000159e+02 5.948899999999999864e+02 7.147799999999999727e+02 7.949400000000000546e+02 8.815499999999999545e+02 9.834299999999999500e+02 1.083039999999999964e+03 1.153710000000000036e+03 1.187759999999999991e+03 1.198400000000000091e+03 1.199900000000000091e+03 1.198529999999999973e+03 1.194150000000000091e+03 1.185069999999999936e+03 1.169710000000000036e+03 1.139930000000000064e+03 1.069809999999999945e+03 9.393799999999999955e+02 8.022899999999999636e+02 7.087000000000000455e+02 6.086499999999999773e+02 4.683899999999999864e+02 3.551899999999999977e+02 3.104599999999999795e+02 3.012200000000000273e+02 3.000600000000000023e+02 3.000099999999999909e+02 3.000000000000000000e+02 3.000000000000000000e+02 3.000000000000000000e+02 3.000199999999999818e+02 2.988999999999999773e+02 2.893000000000000114e+02 2.538499999999999943e+02 1.873400000000000034e+02 1.208599999999999994e+02 8.170999999999999375e+01 6.596999999999999886e+01 6.114000000000000057e+01 6.010000000000000142e+01 6.000000000000000000e+01 6.000000000000000000e+01 5.996999999999999886e+01 6.111999999999999744e+01 7.048000000000000398e+01 1.174500000000000028e+02 2.546200000000000045e+02 4.721299999999999955e+02 6.319600000000000364e+02 6.258600000000000136e+02 4.736499999999999773e+02 2.766000000000000227e+02 1.482199999999999989e+02 1.059300000000000068e+02 9.995000000000000284e+01 1.000000000000000000e+02 1.000000000000000000e+02 1.000000000000000000e+02 1.000000000000000000e+02 1.000100000000000051e+02 9.982999999999999829e+01 9.843000000000000682e+01 9.418000000000000682e+01 8.418000000000000682e+01 6.482999999999999829e+01 3.331000000000000227e+01 -9.310000000000000497e+00 -5.346999999999999886e+01 -8.140000000000000568e+01 -8.117000000000000171e+01 -7.023999999999999488e+01 -1.241800000000000068e+02 -4.646000000000000227e+02 -1.429660000000000082e+03 -2.799869999999999891e+03 -3.700929999999999836e+03 -3.972409999999999854e+03 -4.000530000000000200e+03 -4.000000000000000000e+03 -4.000000000000000000e+03 -4.000000000000000000e+03 -4.000000000000000000e+03 -4.000000000000000000e+03 -4.000000000000000000e+03 -4.000000000000000000e+03 -4.000000000000000000e+03 -4.000000000000000000e+03 -4.000000000000000000e+03 -4.000000000000000000e+03 -4.000000000000000000e+03 -4.000000000000000000e+03 -4.000000000000000000e+03 -4.000000000000000000e+03 -4.000000000000000000e+03
-3.820440000000000055e+03 -3.597920000000000073e+03 -3.429739999999999782e+03 -3.428179999999999836e+03 -3.551849999999999909e+03 -3.666489999999999782e+03 -3.711639999999999873e+03 -3.736730000000000018e+03 -3.760170000000000073e+03 -3.743840000000000146e+03 -3.678619999999999891e+03 -3.482719999999999800e+03 -2.872630000000000109e+03 -1.742619999999999891e+03 -7.223099999999999454e+02 -2.833999999999999773e+02 -2.012199999999999989e+02 -2.000000000000000000e+02 -2.000399999999999920e+02 -1.938199999999999932e+02 -1.445200000000000102e+02 1.402999999999999936e+01 2.748100000000000023e+02 5.283400000000000318e+02 7.180599999999999454e+02 8.556599999999999682e+02 9.585599999999999454e+02 1.051920000000000073e+03 1.134349999999999909e+03 1.182259999999999991e+03 1.197650000000000091e+03 1.199829999999999927e+03 1.197900000000000091e+03 1.189930000000000064e+03 1.172279999999999973e+03 1.146490000000000009e+03 1.116240000000000009e+03 1.079069999999999936e+03 1.021519999999999982e+03 9.304400000000000546e+02 8.288200000000000500e+02 7.344500000000000455e+02 6.067599999999999909e+02 4.471200000000000045e+02 3.381299999999999955e+02 3.037500000000000000e+02 2.999700000000000273e+02 3.000000000000000000e+02 3.000000000000000000e+02 3.000000000000000000e+02 3.000000000000000000e+02 3.000000000000000000e+02 2.998000000000000114e+02 2.958000000000000114e+02 2.752799999999999727e+02 2.225500000000000114e+02 1.513499999999999943e+02 1.000699999999999932e+02 7.729999999999999716e+01 6.729999999999999716e+01 6.214999999999999858e+01 6.028999999999999915e+01 6.000000000000000000e+01 6.000000000000000000e+01 6.020000000000000284e+01 6.459000000000000341e+01 8.595000000000000284e+01 1.474499999999999886e+02 2.663999999999999773e+02 4.278899999999999864e+02 5.517000000000000455e+02 5.458799999999999955e+02 4.006399999999999864e+02 2.238600000000000136e+02 1.266400000000000006e+02 1.020499999999999972e+02 9.998999999999999488e+01 1.000000000000000000e+02 1.000000000000000000e+02 1.000199999999999960e+02 9.996999999999999886e+01 9.882999999999999829e+01 9.448999999999999488e+01 8.456000000000000227e+01 6.601999999999999602e+01 3.574000000000000199e+01 -5.900000000000000355e+00 -5.468999999999999773e+01 -1.029800000000000040e+02 -1.416200000000000045e+02 -1.621699999999999875e+02 -1.614699999999999989e+02 -1.514499999999999886e+02 -1.964499999999999886e+02 -5.387599999999999909e+02 -1.531500000000000000e+03 -2.876039999999999964e+03 -3.731360000000000127e+03 -3.976530000000000200e+03 -3.999980000000000018e+03 -4.000000000000000000e+03 -4.000000000000000000e+03 -4.000000000000000000e+03 -4.000000000000000000e+03 -4.000000000000000000e+03 -4.000000000000000000e+03 -4.000000000000000000e+03 -4.000000000000000000e+03 -4.000000000000000000e+03 -4.000000000000000000e+03 -4.000000000000000000e+03 -4.000000000000000000e+03 -4.000000000000000000e+03 -4.000000000000000000e+03 -4.000000000000000000e+03 -4.000000000000000000e+03
-3.975059999999999945e+03 -3.936969999999999800e+03 -3.903659999999999854e+03 -3.903030000000000200e+03 -3.935070000000000164e+03 -3.962460000000000036e+03 -3.971139999999999873e+03 -3.975170000000000073e+03 -3.981360000000000127e+03 -3.979159999999999854e+03 -3.962920000000000073e+03 -3.846219999999999800e+03 -3.337650000000000091e+03 -2.200809999999999945e+03 -9.941799999999999500e+02 -3.692599999999999909e+02 -2.115800000000000125e+02 -1.998000000000000114e+02 -1.999900000000000091e+02 -1.976100000000000136e+02 -1.722400000000000091e+02 -7.745000000000000284e+01 1.137800000000000011e+02 3.683299999999999841e+02 6.385000000000000000e+02 8.587500000000000000e+02 9.850199999999999818e+02 1.067859999999999900e+03 1.140200000000000045e+03 1.183990000000000009e+03 1.197700000000000045e+03 1.197960000000000036e+03 1.189410000000000082e+03 1.165519999999999982e+03 1.126640000000000100e+03 1.085980000000000018e+03 1.052660000000000082e+03 1.022620000000000005e+03 9.837100000000000364e+02 9.296599999999999682e+02 8.667999999999999545e+02 7.847300000000000182e+02 6.446599999999999682e+02 4.666999999999999886e+02 3.454800000000000182e+02 3.052500000000000000e+02 2.999300000000000068e+02 3.000000000000000000e+02 3.000000000000000000e+02 3.000000000000000000e+02 3.000000000000000000e+02 3.000299999999999727e+02 2.990500000000000114e+02 2.895400000000000205e+02 2.533799999999999955e+02 1.863799999999999955e+02 1.220000000000000000e+02 8.843000000000000682e+01 7.676999999999999602e+01 6.962999999999999545e+01 6.346000000000000085e+01 6.063000000000000256e+01 6.003000000000000114e+01 5.997999999999999687e+01 6.086999999999999744e+01 7.007999999999999829e+01 1.021899999999999977e+02 1.594099999999999966e+02 2.250800000000000125e+02 3.076999999999999886e+02 4.043899999999999864e+02 4.299700000000000273e+02 3.242900000000000205e+02 1.842199999999999989e+02 1.151899999999999977e+02 1.005900000000000034e+02 1.000000000000000000e+02 1.000300000000000011e+02 9.964000000000000057e+01 9.854000000000000625e+01 9.551999999999999602e+01 8.735999999999999943e+01 6.862000000000000455e+01 3.771999999999999886e+01 -3.609999999999999876e+00 -5.175000000000000000e+01 -9.979999999999999716e+01 -1.404699999999999989e+02 -1.694799999999999898e+02 -1.864000000000000057e+02 -1.931500000000000057e+02 -1.967100000000000080e+02 -2.028499999999999943e+02 -2.878100000000000023e+02 -7.039600000000000364e+02 -1.737440000000000055e+03 -3.018159999999999854e+03 -3.775000000000000000e+03 -3.980670000000000073e+03 -4.000590000000000146e+03 -4.000000000000000000e+03 -4.000000000000000000e+03 -4.000000000000000000e+03 -4.000000000000000000e+03 -4.000000000000000000e+03 -4.000000000000000000e+03 -4.000000000000000000e+03 -4.000000000000000000e+03 -4.000000000000000000e+03 -4.000000000000000000e+03 -4.000000000000000000e+03 -4.000000000000000000e+03 -4.000000000000000000e+03 -4.000000000000000000e+03 -4.000000000000000000e+03 -4.000000000000000000e+03
-4.000650000000000091e+03 -4.000010000000000218e+03 -3.996719999999999800e+03 -3.996980000000000018e+03 -3.999190000000000055e+03 -4.000230000000000018e+03 -4.000210000000000036e+03 -4.000849999999999909e+03 -4.000280000000000200e+03 -4.000000000000000000e+03 -4.000070000000000164e+03 -3.942510000000000218e+03 -3.593449999999999818e+03 -2.656070000000000164e+03 -1.400319999999999936e+03 -5.498899999999999864e+02 -2.498499999999999943e+02 -2.004699999999999989e+02 -2.000099999999999909e+02 -1.992599999999999909e+02 -1.890000000000000000e+02 -1.414199999999999875e+02 -2.355000000000000071e+01 1.846599999999999966e+02 4.848700000000000045e+02 7.869500000000000455e+02 9.652400000000000091e+02 1.049970000000000027e+03 1.116660000000000082e+03 1.165220000000000027e+03 1.185390000000000100e+03 1.185690000000000055e+03 1.166569999999999936e+03 1.123500000000000000e+03 1.071900000000000091e+03 1.032660000000000082e+03 1.008230000000000018e+03 9.863500000000000227e+02 9.564700000000000273e+02 9.222899999999999636e+02 8.905199999999999818e+02 8.373500000000000227e+02 7.165800000000000409e+02 5.349199999999999591e+02 3.843500000000000227e+02 3.170899999999999750e+02 3.012099999999999795e+02 2.999700000000000273e+02 3.000000000000000000e+02 3.000000000000000000e+02 3.000000000000000000e+02 3.000199999999999818e+02 2.981100000000000136e+02 2.824399999999999977e+02 2.320000000000000000e+02 1.567800000000000011e+02 1.028299999999999983e+02 8.289000000000000057e+01 7.743000000000000682e+01 7.176000000000000512e+01 6.498999999999999488e+01 6.114000000000000057e+01 6.009000000000000341e+01 5.992000000000000171e+01 6.228999999999999915e+01 7.934000000000000341e+01 1.221299999999999955e+02 1.589600000000000080e+02 1.585699999999999932e+02 1.731699999999999875e+02 2.408499999999999943e+02 2.897599999999999909e+02 2.372400000000000091e+02 1.493100000000000023e+02 1.080999999999999943e+02 1.001299999999999955e+02 9.984999999999999432e+01 9.807999999999999829e+01 9.306999999999999318e+01 8.437000000000000455e+01 7.084999999999999432e+01 4.568999999999999773e+01 3.560000000000000053e+00 -4.832999999999999829e+01 -9.770000000000000284e+01 -1.383100000000000023e+02 -1.676800000000000068e+02 -1.853700000000000045e+02 -1.948600000000000136e+02 -2.044499999999999886e+02 -2.260600000000000023e+02 -2.751999999999999886e+02 -3.670799999999999841e+02 -5.830700000000000500e+02 -1.159069999999999936e+03 -2.213090000000000146e+03 -3.293809999999999945e+03 -3.850789999999999964e+03 -3.989730000000000018e+03 -4.000070000000000164e+03 -4.000000000000000000e+03 -4.000000000000000000e+03 -4.000000000000000000e+03 -4.000000000000000000e+03 -4.000000000000000000e+03 -4.000000000000000000e+03 -4.000000000000000000e+03 -4.000000000000000000e+03 -4.000000000000000000e+03 -4.000000000000000000e+03 -4.000000000000000000e+03 -4.000000000000000000e+03 -4.000000000000000000e+03 -4.000000000000000000e+03 -4.000000000000000000e+03 -4.000000000000000000e+03
-4.000000000000000000e+03 -4.000000000000000000e+03 -4.000070000000000164e+03 -3.999989999999999782e+03 -4.000000000000000000e+03 -4.000000000000000000e+03 -4.000000000000000000e+03 -4.000000000000000000e+03 -4.000000000000000000e+03 -4.000000000000000000e+03 -4.000369999999999891e+03 -3.978260000000000218e+03 -3.786800000000000182e+03 -3.121619999999999891e+03 -1.942910000000000082e+03 -8.488899999999999864e+02 -3.301200000000000045e+02 -2.080200000000000102e+02 -1.999000000000000057e+02 -1.998799999999999955e+02 -1.958400000000000034e+02 -1.728600000000000136e+02 -1.018700000000000045e+02 5.703000000000000114e+01 3.504800000000000182e+02 7.050099999999999909e+02 9.345700000000000500e+02 1.023309999999999945e+03 1.075690000000000055e+03 1.120779999999999973e+03 1.145599999999999909e+03 1.147019999999999982e+03 1.122359999999999900e+03 1.073390000000000100e+03 1.021559999999999945e+03 9.812899999999999636e+02 9.519199999999999591e+02 9.322599999999999909e+02 9.180599999999999454e+02 9.074600000000000364e+02 8.984700000000000273e+02 8.745800000000000409e+02 7.971000000000000227e+02 6.430199999999999818e+02 4.686800000000000068e+02 3.546100000000000136e+02 3.115199999999999818e+02 3.010600000000000023e+02 2.999800000000000182e+02 3.000000000000000000e+02 3.000000000000000000e+02 3.000000000000000000e+02 2.971999999999999886e+02 2.775000000000000000e+02 2.192800000000000011e+02 1.419399999999999977e+02 9.454999999999999716e+01 8.095000000000000284e+01 7.829999999999999716e+01 7.365999999999999659e+01 6.671999999999999886e+01 6.185000000000000142e+01 6.021000000000000085e+01 5.996999999999999886e+01 6.445999999999999375e+01 9.331999999999999318e+01 1.592800000000000011e+02 1.934699999999999989e+02 1.452599999999999909e+02 1.042300000000000040e+02 1.269399999999999977e+02 1.659799999999999898e+02 1.553400000000000034e+02 1.200699999999999932e+02 1.029599999999999937e+02 9.965000000000000568e+01 9.675000000000000000e+01 8.603000000000000114e+01 6.375999999999999801e+01 3.467999999999999972e+01 2.790000000000000036e+00 -3.732000000000000028e+01 -8.709999999999999432e+01 -1.340200000000000102e+02 -1.663199999999999932e+02 -1.850300000000000011e+02 -1.954499999999999886e+02 -2.083600000000000136e+02 -2.386800000000000068e+02 -3.082799999999999727e+02 -4.386000000000000227e+02 -6.556399999999999864e+02 -9.542000000000000455e+02 -1.369619999999999891e+03 -2.050900000000000091e+03 -2.930329999999999927e+03 -3.627619999999999891e+03 -3.932989999999999782e+03 -3.997599999999999909e+03 -4.000010000000000218e+03 -4.000000000000000000e+03 -4.000000000000000000e+03 -4.000000000000000000e+03 -4.000000000000000000e+03 -4.000000000000000000e+03 -4.000000000000000000e+03 -4.000000000000000000e+03 -4.000000000000000000e+03 -4.000000000000000000e+03 -4.000000000000000000e+03 -4.000000000000000000e+03 -4.000000000000000000e+03 -4.000000000000000000e+03 -4.000000000000000000e+03 -4.000000000000000000e+03 -4.000000000000000000e+03
-4.000000000000000000e+03 -4.000000000000000000e+03 -4.000000000000000000e+03 -4.000000000000000000e+03 -4.000000000000000000e+03 -4.000000000000000000e+03 -4.000000000000000000e+03 -4.000000000000000000e+03 -4.000000000000000000e+03 -4.000000000000000000e+03 -4.000019999999999982e+03 -3.996849999999999909e+03 -3.911469999999999800e+03 -3.486449999999999818e+03 -2.470769999999999982e+03 -1.225029999999999973e+03 -4.572400000000000091e+02 -2.279799999999999898e+02 -1.996100000000000136e+02 -2.000300000000000011e+02 -1.983899999999999864e+02 -1.868499999999999943e+02 -1.420300000000000011e+02 -1.202999999999999936e+01 2.689599999999999795e+02 6.412599999999999909e+02 9.018400000000000318e+02 9.987000000000000455e+02 1.033190000000000055e+03 1.060460000000000036e+03 1.078980000000000018e+03 1.081150000000000091e+03 1.058599999999999909e+03 1.008250000000000000e+03 9.384900000000000091e+02 8.559400000000000546e+02 7.911799999999999500e+02 7.822400000000000091e+02 8.228400000000000318e+02 8.700000000000000000e+02 8.934900000000000091e+02 8.930499999999999545e+02 8.594400000000000546e+02 7.627699999999999818e+02 6.041100000000000136e+02 4.505099999999999909e+02 3.572099999999999795e+02 3.161100000000000136e+02 3.023399999999999750e+02 2.998999999999999773e+02 3.000000000000000000e+02 2.999700000000000273e+02 2.966000000000000227e+02 2.747699999999999818e+02 2.140300000000000011e+02 1.374499999999999886e+02 9.256000000000000227e+01 8.070000000000000284e+01 7.893000000000000682e+01 7.507999999999999829e+01 6.818000000000000682e+01 6.250999999999999801e+01 6.034000000000000341e+01 5.992000000000000171e+01 6.562000000000000455e+01 1.027300000000000040e+02 1.916599999999999966e+02 2.403000000000000114e+02 1.705600000000000023e+02 9.106999999999999318e+01 7.882999999999999829e+01 1.001800000000000068e+02 1.087900000000000063e+02 1.040300000000000011e+02 1.002999999999999972e+02 9.701999999999999602e+01 8.392000000000000171e+01 5.046000000000000085e+01 -1.659999999999999920e+00 -5.345000000000000284e+01 -9.381999999999999318e+01 -1.284900000000000091e+02 -1.599000000000000057e+02 -1.820099999999999909e+02 -1.947800000000000011e+02 -2.116699999999999875e+02 -2.558100000000000023e+02 -3.457400000000000091e+02 -4.991899999999999977e+02 -7.568899999999999864e+02 -1.123349999999999909e+03 -1.590960000000000036e+03 -2.095369999999999891e+03 -2.570079999999999927e+03 -3.084250000000000000e+03 -3.573969999999999800e+03 -3.876199999999999818e+03 -3.983420000000000073e+03 -4.000000000000000000e+03 -4.000000000000000000e+03 -4.000000000000000000e+03 -4.000000000000000000e+03 -4.000000000000000000e+03 -4.000000000000000000e+03 -4.000000000000000000e+03 -4.000000000000000000e+03 -4.000000000000000000e+03 -4.000000000000000000e+03 -4.000000000000000000e+03 -4.000000000000000000e+03 -4.000000000000000000e+03 -4.000000000000000000e+03 -4.000000000000000000e+03 -4.000000000000000000e+03 -4.000000000000000000e+03 -4.000000000000000000e+03
-4.000000000000000000e+03 -4.000000000000000000e+03 -4.000000000000000000e+03 -4.000000000000000000e+03 -4.000000000000000000e+03 -4.000000000000000000e+03 -4.000000000000000000e+03 -4.000000000000000000e+03 -4.000000000000000000e+03 -4.000000000000000000e+03 -4.000000000000000000e+03 -3.999949999999999818e+03 -3.967530000000000200e+03 -3.710349999999999909e+03 -2.889840000000000146e+03 -1.613220000000000027e+03 -6.261599999999999682e+02 -2.607300000000000182e+02 -2.006800000000000068e+02 -2.000099999999999909e+02 -1.996500000000000057e+02 -1.945600000000000023e+02 -1.667199999999999989e+02 -6.681999999999999318e+01 1.781200000000000045e+02 5.394800000000000182e+02 8.377000000000000455e+02 9.717599999999999909e+02 1.006570000000000050e+03 1.017409999999999968e+03 1.024190000000000055e+03 1.016820000000000050e+03 9.761299999999999955e+02 8.831699999999999591e+02 7.424600000000000364e+02 5.873099999999999454e+02 4.888899999999999864e+02 5.110299999999999727e+02 6.384299999999999500e+02 7.835199999999999818e+02 8.692200000000000273e+02 8.973999999999999773e+02 8.992300000000000182e+02 8.748700000000000045e+02 7.885199999999999818e+02 6.438899999999999864e+02 4.918399999999999750e+02 3.775899999999999750e+02 3.213399999999999750e+02 3.041100000000000136e+02 3.009100000000000250e+02 3.000500000000000114e+02 2.967599999999999909e+02 2.759599999999999795e+02 2.171500000000000057e+02 1.408499999999999943e+02 9.420999999999999375e+01 8.106999999999999318e+01 7.920000000000000284e+01 7.579999999999999716e+01 6.901000000000000512e+01 6.292999999999999972e+01 6.042999999999999972e+01 5.996000000000000085e+01 6.501999999999999602e+01 1.034300000000000068e+02 2.001200000000000045e+02 2.627200000000000273e+02 1.933499999999999943e+02 9.779000000000000625e+01 7.076999999999999602e+01 8.370999999999999375e+01 9.607999999999999829e+01 9.971999999999999886e+01 9.904000000000000625e+01 9.009000000000000341e+01 5.639999999999999858e+01 -9.480000000000000426e+00 -8.398000000000000398e+01 -1.375900000000000034e+02 -1.657400000000000091e+02 -1.810399999999999920e+02 -1.930399999999999920e+02 -2.119099999999999966e+02 -2.570699999999999932e+02 -3.593000000000000114e+02 -5.558700000000000045e+02 -8.665399999999999636e+02 -1.272079999999999927e+03 -1.766210000000000036e+03 -2.302000000000000000e+03 -2.802199999999999818e+03 -3.227329999999999927e+03 -3.526480000000000018e+03 -3.747320000000000164e+03 -3.904079999999999927e+03 -3.979889999999999873e+03 -3.999369999999999891e+03 -3.999969999999999800e+03 -4.000000000000000000e+03 -4.000000000000000000e+03 -4.000000000000000000e+03 -4.000000000000000000e+03 -4.000000000000000000e+03 -4.000000000000000000e+03 -4.000000000000000000e+03 -4.000000000000000000e+03 -4.000000000000000000e+03 -4.000000000000000000e+03 -4.000000000000000000e+03 -4.000000000000000000e+03 -4.000000000000000000e+03 -4.000000000000000000e+03 -4.000000000000000000e+03 -4.000000000000000000e+03 -4.000000000000000000e+03
-4.000000000000000000e+03 -4.000000000000000000e+03 -4.000000000000000000e+03 -4.000000000000000000e+03 -4.000000000000000000e+03 -4.000000000000000000e+03 -4.000000000000000000e+03 -4.000000000000000000e+03 -4.000000000000000000e+03 -4.000000000000000000e+03 -4.000000000000000000e+03 -4.000309999999999945e+03 -3.988400000000000091e+03 -3.831280000000000200e+03 -3.186019999999999982e+03 -1.951529999999999973e+03 -8.124800000000000182e+02 -3.050799999999999841e+02 -2.042800000000000011e+02 -1.999699999999999989e+02 -1.998199999999999932e+02 -1.971800000000000068e+02 -1.815999999999999943e+02 -1.168900000000000006e+02 6.135999999999999943e+01 3.852599999999999909e+02 7.321599999999999682e+02 9.337999999999999545e+02 9.884199999999999591e+02 9.869600000000000364e+02 9.727500000000000000e+02 9.332100000000000364e+02 8.280700000000000500e+02 6.393799999999999955e+02 4.187400000000000091e+02 2.434399999999999977e+02 1.759600000000000080e+02 2.418100000000000023e+02 4.207500000000000000e+02 6.489299999999999500e+02 8.187100000000000364e+02 8.905499999999999545e+02 9.235099999999999909e+02 9.611299999999999955e+02 9.696399999999999864e+02 8.895700000000000500e+02 7.191299999999999955e+02 5.249600000000000364e+02 3.944200000000000159e+02 3.384700000000000273e+02 3.163199999999999932e+02 3.048799999999999955e+02 2.983199999999999932e+02 2.811200000000000045e+02 2.288199999999999932e+02 1.528700000000000045e+02 9.984000000000000341e+01 8.225000000000000000e+01 7.931999999999999318e+01 7.612999999999999545e+01 6.946999999999999886e+01 6.321000000000000085e+01 6.049000000000000199e+01 5.992999999999999972e+01 6.382000000000000028e+01 9.964000000000000057e+01 1.951399999999999864e+02 2.675899999999999750e+02 2.070900000000000034e+02 1.084399999999999977e+02 7.673999999999999488e+01 8.576000000000000512e+01 9.617000000000000171e+01 9.956999999999999318e+01 9.812000000000000455e+01 8.189000000000000057e+01 2.583999999999999986e+01 -6.550000000000000000e+01 -1.435300000000000011e+02 -1.817100000000000080e+02 -1.950600000000000023e+02 -2.129699999999999989e+02 -2.568399999999999750e+02 -3.577699999999999818e+02 -5.566900000000000546e+02 -8.916100000000000136e+02 -1.368910000000000082e+03 -1.931730000000000018e+03 -2.474269999999999982e+03 -2.954889999999999873e+03 -3.356719999999999800e+03 -3.640969999999999800e+03 -3.823199999999999818e+03 -3.919780000000000200e+03 -3.968190000000000055e+03 -3.992260000000000218e+03 -4.000619999999999891e+03 -4.000030000000000200e+03 -4.000000000000000000e+03 -4.000000000000000000e+03 -4.000000000000000000e+03 -4.000000000000000000e+03 -4.000000000000000000e+03 -4.000000000000000000e+03 -4.000000000000000000e+03 -4.000000000000000000e+03 -4.000000000000000000e+03 -4.000000000000000000e+03 -4.000000000000000000e+03 -4.000000000000000000e+03 -4.000000000000000000e+03 -4.000000000000000000e+03 -4.000000000000000000e+03 -4.000000000000000000e+03 -4.000000000000000000e+03 -4.000000000000000000e+03
-4.000000000000000000e+03 -4.000000000000000000e+03 -4.000000000000000000e+03 -4.000000000000000000e+03 -4.000000000000000000e+03 -4.000000000000000000e+03 -4.000000000000000000e+03 -4.000000000000000000e+03 -4.000000000000000000e+03 -4.000000000000000000e+03 -4.000000000000000000e+03 -3.999980000000000018e+03 -3.997300000000000182e+03 -3.893480000000000018e+03 -3.390409999999999854e+03 -2.246449999999999818e+03 -1.013269999999999982e+03 -3.670400000000000205e+02 -2.094900000000000091e+02 -1.990500000000000114e+02 -1.946999999999999886e+02 -1.849900000000000091e+02 -1.668499999999999943e+02 -1.245699999999999932e+02 -7.540000000000000036e+00 2.673399999999999750e+02 6.406599999999999682e+02 8.901699999999999591e+02 9.446299999999999955e+02 9.000599999999999454e+02 8.330900000000000318e+02 7.346900000000000546e+02 5.518899999999999864e+02 3.046700000000000159e+02 9.354999999999999716e+01 -1.457000000000000028e+01 -9.820000000000000284e+00 8.684000000000000341e+01 2.614399999999999977e+02 5.129800000000000182e+02 7.493700000000000045e+02 8.719600000000000364e+02 9.258300000000000409e+02 9.883300000000000409e+02 1.054200000000000045e+03 1.054859999999999900e+03 9.397000000000000455e+02 7.370000000000000000e+02 5.553099999999999454e+02 4.486999999999999886e+02 3.801399999999999864e+02 3.301299999999999955e+02 3.049900000000000091e+02 2.875500000000000114e+02 2.445399999999999920e+02 1.710099999999999909e+02 1.092600000000000051e+02 8.445999999999999375e+01 7.951000000000000512e+01 7.634999999999999432e+01 6.984000000000000341e+01 6.336999999999999744e+01 5.996999999999999886e+01 5.829999999999999716e+01 6.042000000000000171e+01 9.309999999999999432e+01 1.846500000000000057e+02 2.643399999999999750e+02 2.151299999999999955e+02 1.192699999999999960e+02 8.560999999999999943e+01 9.081999999999999318e+01 9.803000000000000114e+01 9.987000000000000455e+01 9.693999999999999773e+01 7.421999999999999886e+01 5.139999999999999680e+00 -9.603000000000000114e+01 -1.693899999999999864e+02 -2.074300000000000068e+02 -2.576399999999999864e+02 -3.644499999999999886e+02 -5.644099999999999682e+02 -8.949900000000000091e+02 -1.365960000000000036e+03 -1.940539999999999964e+03 -2.541920000000000073e+03 -3.074840000000000146e+03 -3.464130000000000109e+03 -3.712099999999999909e+03 -3.864639999999999873e+03 -3.945570000000000164e+03 -3.984369999999999891e+03 -3.998980000000000018e+03 -4.000460000000000036e+03 -4.000170000000000073e+03 -4.000000000000000000e+03 -4.000000000000000000e+03 -4.000000000000000000e+03 -4.000000000000000000e+03 -4.000000000000000000e+03 -4.000000000000000000e+03 -4.000000000000000000e+03 -4.000000000000000000e+03 -4.000000000000000000e+03 -4.000000000000000000e+03 -4.000000000000000000e+03 -4.000000000000000000e+03 -4.000000000000000000e+03 -4.000000000000000000e+03 -4.000000000000000000e+03 -4.000000000000000000e+03 -4.000000000000000000e+03 -4.000000000000000000e+03 -4.000000000000000000e+03 -4.000000000000000000e+03
-4.000000000000000000e+03 -4.000000000000000000e+03 -4.000000000000000000e+03 -4.000000000000000000e+03 -4.000000000000000000e+03 -4.000000000000000000e+03 -4.000000000000000000e+03 -4.000000000000000000e+03 -4.000000000000000000e+03 -4.000000000000000000e+03 -4.000000000000000000e+03 -4.000000000000000000e+03 -3.999219999999999800e+03 -3.934730000000000018e+03 -3.550599999999999909e+03 -2.538940000000000055e+03 -1.253460000000000036e+03 -4.638199999999999932e+02 -2.255999999999999943e+02 -1.939000000000000057e+02 -1.743300000000000125e+02 -1.351299999999999955e+02 -8.695999999999999375e+01 -3.884000000000000341e+01 4.159000000000000341e+01 2.550999999999999943e+02 5.945700000000000500e+02 8.242699999999999818e+02 8.207999999999999545e+02 6.778099999999999454e+02 5.244500000000000455e+02 3.823500000000000227e+02 2.019699999999999989e+02 1.532000000000000028e+01 -1.010799999999999983e+02 -1.235999999999999943e+02 -6.834000000000000341e+01 3.467000000000000171e+01 1.770000000000000000e+02 3.999800000000000182e+02 6.597799999999999727e+02 8.306100000000000136e+02 9.046699999999999591e+02 9.603300000000000409e+02 1.031130000000000109e+03 1.081230000000000018e+03 1.047829999999999927e+03 9.132899999999999636e+02 7.554500000000000455e+02 6.315199999999999818e+02 5.107699999999999818e+02 3.944499999999999886e+02 3.250699999999999932e+02 2.951200000000000045e+02 2.579499999999999886e+02 1.879699999999999989e+02 1.189699999999999989e+02 8.700000000000000000e+01 7.970999999999999375e+01 7.654000000000000625e+01 7.006999999999999318e+01 6.274000000000000199e+01 5.677000000000000313e+01 5.078000000000000114e+01 4.892999999999999972e+01 7.696999999999999886e+01 1.611599999999999966e+02 2.421299999999999955e+02 2.064600000000000080e+02 1.230199999999999960e+02 9.173000000000000398e+01 9.451000000000000512e+01 9.912999999999999545e+01 9.918000000000000682e+01 9.131999999999999318e+01 5.738000000000000256e+01 -2.030000000000000071e+01 -1.177999999999999972e+02 -2.029300000000000068e+02 -3.166700000000000159e+02 -5.398400000000000318e+02 -8.982799999999999727e+02 -1.375940000000000055e+03 -1.945599999999999909e+03 -2.541579999999999927e+03 -3.076489999999999782e+03 -3.486699999999999818e+03 -3.752670000000000073e+03 -3.894909999999999854e+03 -3.961710000000000036e+03 -3.991489999999999782e+03 -3.999940000000000055e+03 -4.000500000000000000e+03 -4.000000000000000000e+03 -4.000000000000000000e+03 -4.000000000000000000e+03 -4.000000000000000000e+03 -4.000000000000000000e+03 -4.000000000000000000e+03 -4.000000000000000000e+03 -4.000000000000000000e+03 -4.000000000000000000e+03 -4.000000000000000000e+03 -4.000000000000000000e+03 -4.000000000000000000e+03 -4.000000000000000000e+03 -4.000000000000000000e+03 -4.000000000000000000e+03 -4.000000000000000000e+03 -4.000000000000000000e+03 -4.000000000000000000e+03 -4.000000000000000000e+03 -4.000000000000000000e+03 -4.000000000000000000e+03 -4.000000000000000000e+03 -4.000000000000000000e+03
-4.000000000000000000e+03 -4.000000000000000000e+03 -4.000000000000000000e+03 -4.000000000000000000e+03 -4.000000000000000000e+03 -4.000000000000000000e+03 -4.000000000000000000e+03 -4.000000000000000000e+03 -4.000000000000000000e+03 -4.000000000000000000e+03 -4.000000000000000000e+03 -4.000000000000000000e+03 -4.000710000000000036e+03 -3.964420000000000073e+03 -3.691400000000000091e+03 -2.855460000000000036e+03 -1.587069999999999936e+03 -6.311900000000000546e+02 -2.650799999999999841e+02 -1.869699999999999989e+02 -1.386699999999999875e+02 -4.802000000000000313e+01 4.825000000000000000e+01 1.129300000000000068e+02 1.635999999999999943e+02 2.923700000000000045e+02 5.291399999999999864e+02 6.773500000000000227e+02 5.912599999999999909e+02 3.629499999999999886e+02 1.620000000000000000e+02 3.882000000000000028e+01 -6.146000000000000085e+01 -1.389900000000000091e+02 -1.640200000000000102e+02 -1.310800000000000125e+02 -5.504999999999999716e+01 3.378000000000000114e+01 1.320399999999999920e+02 2.940199999999999818e+02 5.307799999999999727e+02 7.411499999999999773e+02 8.574600000000000364e+02 9.150599999999999454e+02 9.672000000000000455e+02 1.018340000000000032e+03 1.026640000000000100e+03 9.668200000000000500e+02 8.782799999999999727e+02 7.891200000000000045e+02 6.613200000000000500e+02 4.957500000000000000e+02 3.689399999999999977e+02 3.086899999999999977e+02 2.655500000000000114e+02 1.975200000000000102e+02 1.260499999999999972e+02 9.001000000000000512e+01 8.085999999999999943e+01 7.723999999999999488e+01 7.032999999999999829e+01 6.082999999999999829e+01 4.871000000000000085e+01 3.396000000000000085e+01 2.542999999999999972e+01 4.536999999999999744e+01 1.123599999999999994e+02 1.814900000000000091e+02 1.648199999999999932e+02 1.110000000000000000e+02 9.243999999999999773e+01 9.612000000000000455e+01 9.940999999999999659e+01 9.612999999999999545e+01 7.604000000000000625e+01 2.050000000000000000e+01 -6.631000000000000227e+01 -1.674300000000000068e+02 -3.270500000000000114e+02 -6.744700000000000273e+02 -1.252779999999999973e+03 -1.927099999999999909e+03 -2.555889999999999873e+03 -3.082179999999999836e+03 -3.484420000000000073e+03 -3.748570000000000164e+03 -3.896059999999999945e+03 -3.968579999999999927e+03 -3.995699999999999818e+03 -4.000219999999999800e+03 -4.000130000000000109e+03 -4.000000000000000000e+03 -4.000000000000000000e+03 -4.000000000000000000e+03 -4.000000000000000000e+03 -4.000000000000000000e+03 -4.000000000000000000e+03 -4.000000000000000000e+03 -4.000000000000000000e+03 -4.000000000000000000e+03 -4.000000000000000000e+03 -4.000000000000000000e+03 -4.000000000000000000e+03 -4.000000000000000000e+03 -4.000000000000000000e+03 -4.000000000000000000e+03 -4.000000000000000000e+03 -4.000000000000000000e+03 -4.000000000000000000e+03 -4.000000000000000000e+03 -4.000000000000000000e+03 -4.000000000000000000e+03 -4.000000000000000000e+03 -4.000000000000000000e+03 -4.000000000000000000e+03 -4.000000000000000000e+03
-4.000000000000000000e+03 -4.000000000000000000e+03 -4.000000000000000000e+03 -4.000000000000000000e+03 -4.000000000000000000e+03 -4.000000000000000000e+03 -4.000000000000000000e+03 -4.000000000000000000e+03 -4.000000000000000000e+03 -4.000000000000000000e+03 -4.000000000000000000e+03 -4.000000000000000000e+03 -4.000000000000000000e+03 -3.985079999999999927e+03 -3.819840000000000146e+03 -3.196090000000000146e+03 -2.041589999999999918e+03 -9.299600000000000364e+02 -3.713700000000000045e+02 -2.022800000000000011e+02 -1.180100000000000051e+02 5.160000000000000142e+00 1.368000000000000114e+02 2.142700000000000102e+02 2.438100000000000023e+02 2.917400000000000091e+02 3.948199999999999932e+02 4.327099999999999795e+02 3.013100000000000023e+02 8.810999999999999943e+01 -7.006999999999999318e+01 -1.413899999999999864e+02 -1.732899999999999920e+02 -1.843100000000000023e+02 -1.622800000000000011e+02 -1.025300000000000011e+02 -2.591000000000000014e+01 4.372999999999999687e+01 1.046700000000000017e+02 1.975699999999999932e+02 3.684100000000000250e+02 5.822400000000000091e+02 7.527200000000000273e+02 8.495900000000000318e+02 9.038500000000000227e+02 9.420700000000000500e+02 9.569099999999999682e+02 9.383300000000000409e+02 9.065099999999999909e+02 8.644900000000000091e+02 7.734600000000000364e+02 6.135199999999999818e+02 4.473299999999999841e+02 3.383799999999999955e+02 2.686499999999999773e+02 1.976500000000000057e+02 1.301599999999999966e+02 9.454000000000000625e+01 8.456000000000000227e+01 8.025000000000000000e+01 7.231999999999999318e+01 5.939000000000000057e+01 3.921000000000000085e+01 1.559999999999999964e+01 1.580000000000000071e+00 1.075999999999999979e+01 4.997999999999999687e+01 9.515000000000000568e+01 9.937999999999999545e+01 8.473999999999999488e+01 8.595999999999999375e+01 9.487999999999999545e+01 9.873999999999999488e+01 9.070999999999999375e+01 5.282999999999999829e+01 -2.701999999999999957e+01 -1.285600000000000023e+02 -2.815000000000000000e+02 -6.477999999999999545e+02 -1.365450000000000045e+03 -2.265940000000000055e+03 -3.012849999999999909e+03 -3.483190000000000055e+03 -3.752599999999999909e+03 -3.898420000000000073e+03 -3.968289999999999964e+03 -3.994630000000000109e+03 -3.999679999999999836e+03 -3.999989999999999782e+03 -4.000000000000000000e+03 -4.000000000000000000e+03 -4.000000000000000000e+03 -4.000000000000000000e+03 -4.000000000000000000e+03 -4.000000000000000000e+03 -4.000000000000000000e+03 -4.000000000000000000e+03 -4.000000000000000000e+03 -4.000000000000000000e+03 -4.000000000000000000e+03 -4.000000000000000000e+03 -4.000000000000000000e+03 -4.000000000000000000e+03 -4.000000000000000000e+03 -4.000000000000000000e+03 -4.000000000000000000e+03 -4.000000000000000000e+03 -4.000000000000000000e+03 -4.000000000000000000e+03 -4.000000000000000000e+03 -4.000000000000000000e+03 -4.000000000000000000e+03 -4.000000000000000000e+03 -4.000000000000000000e+03 -4.000000000000000000e+03 -4.000000000000000000e+03
